ply
format ascii 1.0
element vertex 1773
property float x
property float y
property float z
end_header
0.805570 0.542185 0.560009
0.445266 0.598524 0.464978
0.116849 0.543077 0.731671
0.899352 0.341660 0.520522
0.303120 0.536924 0.602750
0.322349 0.537027 0.604371
0.335179 0.537271 0.606188
0.720461 0.335388 0.723570
0.726803 0.335177 0.721784
0.733238 0.335034 0.720169
0.739655 0.334948 0.718601
0.637039 0.539070 0.648955
0.328836 0.612994 0.403363
0.123688 0.786187 0.449303
0.862749 0.475280 0.424146
0.508491 0.547702 0.632337
0.897450 0.386676 0.481927
0.786876 0.530746 0.355005
0.136716 0.862212 0.257713
0.592135 0.574112 0.628205
0.360978 0.528569 0.611420
0.508627 0.573643 0.605904
0.142629 0.588518 0.739151
0.867799 0.375221 0.334529
0.880066 0.412792 0.552573
0.894710 0.404480 0.456229
0.129701 0.624748 0.733999
0.903739 0.341934 0.456298
0.428772 0.594214 0.440194
0.084105 0.578640 0.721179
0.876847 0.394426 0.571867
0.016488 0.603508 0.636630
0.707711 0.520444 0.640029
0.116841 0.660689 0.723457
0.451157 0.956002 0.335662
0.103800 0.578909 0.729006
0.154604 0.822803 0.338359
0.148581 0.824698 0.336252
0.665089 0.627471 0.526364
0.240597 0.786316 0.491021
0.821163 0.519031 0.565913
0.703546 0.618293 0.513110
0.150158 0.843908 0.299359
0.659295 0.632673 0.487532
0.453750 0.601222 0.468039
0.457308 0.592866 0.403857
0.725779 0.609507 0.502820
0.502394 0.596912 0.560889
0.158587 0.800414 0.377171
0.147405 0.853812 0.279886
0.153831 0.851859 0.282315
0.378623 0.918937 0.364272
0.369923 0.915662 0.361064
0.360128 0.910626 0.357464
0.040547 0.593174 0.405612
0.174792 0.341124 0.678028
0.181115 0.341300 0.680703
0.187616 0.341531 0.682878
0.193936 0.341554 0.683952
0.200383 0.341670 0.684528
0.206773 0.341659 0.684603
0.213178 0.341642 0.684677
0.219613 0.341522 0.684172
0.226032 0.341492 0.683206
0.232463 0.341443 0.682236
0.238953 0.341519 0.682677
0.245324 0.341540 0.683920
0.251811 0.341730 0.686175
0.258187 0.341845 0.687850
0.264621 0.341983 0.689349
0.270982 0.341982 0.689873
0.277410 0.342048 0.690349
0.283843 0.341979 0.690083
0.290224 0.342057 0.690262
0.296692 0.341923 0.689056
0.303107 0.341802 0.687330
0.309658 0.341527 0.684355
0.316046 0.341287 0.680988
0.322397 0.341100 0.678415
0.328765 0.340841 0.674979
0.335259 0.340583 0.671577
0.341635 0.340522 0.670985
0.348038 0.340781 0.674261
0.354650 0.340995 0.677004
0.360972 0.341122 0.678645
0.367326 0.341187 0.679467
0.373658 0.341082 0.677602
0.380390 0.340750 0.674462
0.386582 0.340645 0.671478
0.393019 0.340394 0.669331
0.399441 0.340389 0.669372
0.405818 0.340483 0.671136
0.412433 0.340966 0.675614
0.419176 0.341602 0.683084
0.575816 0.625840 0.429162
0.568064 0.624337 0.426284
0.560403 0.622474 0.423447
0.552303 0.620245 0.420430
0.627341 0.632782 0.448329
0.620323 0.632448 0.445734
0.583526 0.627387 0.432038
0.634346 0.633072 0.450942
0.476638 0.346576 0.756735
0.483016 0.346707 0.759074
0.489358 0.346880 0.760789
0.495738 0.346964 0.761751
0.502281 0.346907 0.761952
0.508640 0.347007 0.762435
0.515031 0.347056 0.763254
0.521425 0.347124 0.764165
0.527913 0.347064 0.763701
0.534317 0.346984 0.762358
0.540715 0.347066 0.763364
0.547136 0.347179 0.764966
0.553552 0.347188 0.765159
0.560058 0.347151 0.764350
0.566435 0.347106 0.764044
0.572831 0.347118 0.764346
0.579270 0.347134 0.764297
0.585697 0.347149 0.763774
0.592115 0.347086 0.763349
0.598562 0.347098 0.762857
0.604979 0.347133 0.762928
0.611389 0.347095 0.763323
0.617830 0.347210 0.763042
0.624247 0.347124 0.763396
0.630678 0.347083 0.763304
0.637092 0.347007 0.762456
0.643549 0.346939 0.761042
0.650031 0.346876 0.759667
0.656418 0.346694 0.757906
0.662718 0.346541 0.756024
0.418812 0.943947 0.350747
0.864038 0.475113 0.430623
0.801414 0.547271 0.558445
0.123208 0.543116 0.734109
0.012086 0.560194 0.662547
0.296816 0.537213 0.603128
0.309538 0.537136 0.602174
0.315920 0.537149 0.602948
0.720436 0.344170 0.720530
0.726936 0.343983 0.717554
0.733150 0.343702 0.716789
0.739784 0.343818 0.715193
0.746163 0.343694 0.713543
0.516007 0.617599 0.471993
0.063906 0.470078 0.412691
0.156490 0.305545 0.656371
0.489391 0.547034 0.625371
0.795891 0.444085 0.647355
0.428779 0.386313 0.226885
0.545025 0.589346 0.344656
0.727058 0.529288 0.632194
0.348093 0.528729 0.613868
0.793522 0.550964 0.564678
0.148991 0.588434 0.738623
0.419551 0.368828 0.213874
0.882241 0.412827 0.546075
0.894874 0.404534 0.449828
0.397785 0.600027 0.428842
0.841522 0.492293 0.392063
0.109772 0.578999 0.732156
0.406047 0.917004 0.375493
0.880238 0.394685 0.565501
0.861145 0.475196 0.417725
0.856559 0.438266 0.353672
0.149149 0.786740 0.570602
0.457607 0.955932 0.329506
0.639933 0.631671 0.517172
0.096965 0.435068 0.612081
0.193740 0.778333 0.352926
0.659123 0.629083 0.524151
0.056580 0.383237 0.406734
0.817287 0.525190 0.564427
0.709249 0.615762 0.515035
0.764228 0.564850 0.581334
0.665551 0.631498 0.489814
0.061074 0.774171 0.493332
0.032459 0.411086 0.489976
0.674240 0.629372 0.483846
0.163354 0.796573 0.378917
0.132088 0.851519 0.274529
0.140325 0.853689 0.277414
0.394265 0.922431 0.370021
0.386954 0.921403 0.367109
0.004182 0.603354 0.546793
0.184191 0.780574 0.592372
0.047067 0.497714 0.470331
0.109536 0.796040 0.275971
0.174511 0.350100 0.678598
0.181215 0.350422 0.682106
0.187519 0.350548 0.683981
0.193954 0.350680 0.685573
0.200433 0.350844 0.686759
0.206761 0.350806 0.687347
0.213188 0.350900 0.687901
0.219617 0.350776 0.687446
0.225995 0.350945 0.686540
0.232452 0.350548 0.684023
0.238900 0.350515 0.682882
0.245332 0.350562 0.683783
0.251770 0.350674 0.685390
0.258178 0.350786 0.687063
0.264565 0.350865 0.688184
0.270994 0.350906 0.688830
0.277421 0.350977 0.689688
0.283839 0.350989 0.689816
0.290236 0.350973 0.689636
0.296636 0.350897 0.688816
0.302999 0.350755 0.687039
0.309562 0.350565 0.684184
0.316046 0.350318 0.681014
0.322484 0.350074 0.677805
0.328570 0.349608 0.673593
0.335217 0.349478 0.670225
0.341629 0.349491 0.670336
0.348109 0.349705 0.673196
0.354531 0.349887 0.675667
0.360941 0.350084 0.678131
0.367279 0.350018 0.677922
0.373731 0.349833 0.674180
0.380344 0.349811 0.673367
0.386559 0.349882 0.672670
0.393030 0.349889 0.673868
0.399491 0.350073 0.676332
0.405948 0.350205 0.677897
0.412464 0.350230 0.678821
0.419436 0.350565 0.683083
0.654521 0.632680 0.458308
0.661104 0.631941 0.460754
0.667407 0.631023 0.463037
0.673656 0.629789 0.465325
0.685595 0.626514 0.469689
0.679571 0.628043 0.467499
0.641318 0.633200 0.453538
0.647922 0.632943 0.455922
0.702780 0.619950 0.476009
0.483001 0.355379 0.755285
0.489277 0.355621 0.757186
0.495866 0.355594 0.758962
0.502204 0.355754 0.760060
0.508662 0.355821 0.761415
0.515040 0.355900 0.762432
0.521458 0.355957 0.763265
0.527817 0.355891 0.762155
0.534315 0.355745 0.760020
0.540681 0.355909 0.762114
0.547139 0.356040 0.764192
0.553575 0.356045 0.764762
0.559999 0.356054 0.764358
0.566439 0.356002 0.764061
0.572878 0.356005 0.763732
0.579296 0.355973 0.762891
0.585750 0.355970 0.762216
0.592128 0.355891 0.761792
0.598568 0.355882 0.761191
0.604968 0.355792 0.760803
0.611413 0.355835 0.760350
0.617850 0.355894 0.759866
0.624261 0.355831 0.759647
0.630663 0.355740 0.759400
0.637090 0.355685 0.758628
0.643492 0.355586 0.757713
0.649934 0.355542 0.756282
0.656415 0.355497 0.754907
0.662781 0.355315 0.753169
0.669231 0.355189 0.750934
0.675626 0.529802 0.642666
0.322341 0.839862 0.432222
0.646097 0.633727 0.482726
0.322298 0.830375 0.435773
0.328563 0.830330 0.433759
0.283881 0.528427 0.614287
0.039764 0.445517 0.515364
0.144578 0.813253 0.147349
0.726915 0.352695 0.713692
0.733258 0.352567 0.713340
0.739790 0.352574 0.712722
0.746069 0.352472 0.712272
0.752415 0.352409 0.710665
0.199657 0.790889 0.504288
0.123227 0.570329 0.738699
0.476360 0.547169 0.620874
0.851871 0.493148 0.507671
0.873766 0.430324 0.385737
0.045883 0.497528 0.489490
0.232608 0.529070 0.634845
0.863081 0.465890 0.405057
0.425036 0.945565 0.352889
0.471022 0.604182 0.446283
0.014181 0.593816 0.456947
0.885754 0.413154 0.526903
0.857731 0.411140 0.347039
0.868007 0.412033 0.578341
0.547379 0.877762 0.264170
0.572942 0.574099 0.626627
0.489292 0.564786 0.607678
0.210885 0.775584 0.245944
0.864481 0.475428 0.436979
0.864858 0.438844 0.372870
0.197458 0.772449 0.354353
0.049920 0.540245 0.405439
0.180422 0.788904 0.469541
0.619288 0.631877 0.509687
0.646539 0.631222 0.519575
0.346034 0.608126 0.390741
0.813425 0.530913 0.562991
0.714825 0.613245 0.517082
0.557091 0.618351 0.552031
0.671535 0.629879 0.492018
0.467943 0.590361 0.539200
0.032522 0.411125 0.496372
0.668257 0.630991 0.481656
0.168106 0.792983 0.380463
0.416817 0.487387 0.273613
0.141531 0.791416 0.492996
0.251579 0.767286 0.579186
0.076619 0.469493 0.386815
0.015540 0.594606 0.604577
0.148853 0.358108 0.664697
0.155336 0.358243 0.666216
0.419730 0.581677 0.380370
0.413597 0.582018 0.378006
0.174679 0.359172 0.678287
0.181041 0.359436 0.681681
0.187537 0.359607 0.683961
0.193898 0.359733 0.685762
0.200428 0.359905 0.687787
0.206774 0.359983 0.688855
0.213222 0.360077 0.689331
0.219617 0.360018 0.688501
0.225961 0.359772 0.686633
0.232540 0.359550 0.684331
0.238864 0.359585 0.684283
0.245284 0.359651 0.685254
0.251716 0.359738 0.685728
0.258145 0.359726 0.685656
0.264571 0.359779 0.686391
0.270999 0.359824 0.687133
0.277413 0.359876 0.687940
0.283829 0.359885 0.688017
0.290268 0.359901 0.687462
0.296673 0.359803 0.686541
0.303106 0.359666 0.684870
0.309457 0.359454 0.682284
0.315828 0.359188 0.678893
0.322540 0.358931 0.674744
0.328965 0.358697 0.671647
0.335194 0.358538 0.670094
0.341614 0.358621 0.670954
0.348120 0.358715 0.672319
0.354510 0.358913 0.674927
0.360840 0.359075 0.677101
0.367326 0.358992 0.675970
0.373775 0.358957 0.674679
0.380212 0.359165 0.675004
0.386607 0.359116 0.676470
0.393071 0.359460 0.679397
0.399451 0.359331 0.679891
0.405964 0.359420 0.679374
0.412231 0.359317 0.678959
0.418728 0.359426 0.681607
0.425189 0.359964 0.688928
0.730811 0.607676 0.486395
0.725269 0.610277 0.484319
0.719657 0.612699 0.482232
0.714052 0.615139 0.480154
0.708675 0.617985 0.478185
0.697155 0.622275 0.473929
0.691469 0.624542 0.471873
0.736181 0.604799 0.488339
0.144255 0.863028 0.260316
0.489442 0.364293 0.754441
0.495769 0.364479 0.756259
0.502239 0.364576 0.758377
0.508596 0.364750 0.760176
0.515071 0.364794 0.761474
0.521473 0.364862 0.762355
0.527811 0.364787 0.761406
0.534347 0.364652 0.759733
0.540747 0.364794 0.761492
0.547154 0.364925 0.763196
0.553585 0.364956 0.763884
0.560004 0.364976 0.763986
0.566435 0.364980 0.763451
0.572877 0.364921 0.762740
0.579344 0.364905 0.761560
0.585706 0.364774 0.760875
0.592183 0.364806 0.759899
0.598511 0.364637 0.759702
0.604983 0.364659 0.758693
0.611420 0.364656 0.758054
0.617844 0.364596 0.757234
0.624223 0.364461 0.756191
0.630701 0.364487 0.754974
0.637127 0.364438 0.754162
0.643526 0.364334 0.753248
0.649995 0.364322 0.751877
0.656328 0.364091 0.750734
0.662795 0.364069 0.749378
0.669192 0.363927 0.747749
0.675584 0.363817 0.746136
0.681958 0.363677 0.744445
0.615806 0.363113 0.177880
0.309489 0.830247 0.438820
0.851209 0.484028 0.546271
0.543612 0.858269 0.283679
0.652818 0.630014 0.521843
0.110570 0.687401 0.706127
0.726977 0.361527 0.709999
0.733290 0.361377 0.709529
0.739833 0.361330 0.709947
0.746166 0.361365 0.709971
0.752551 0.361365 0.708721
0.155870 0.786406 0.572949
0.116885 0.687542 0.706294
0.482897 0.547130 0.623937
0.161706 0.723329 0.672315
0.839126 0.492197 0.385617
0.107482 0.840799 0.237176
0.540781 0.574137 0.619673
0.309513 0.528299 0.610990
0.409172 0.595743 0.432964
0.155377 0.588402 0.737812
0.585711 0.582859 0.617688
0.886521 0.413196 0.520474
0.890055 0.413249 0.424212
0.033134 0.419834 0.509152
0.880816 0.403742 0.558966
0.835083 0.507753 0.552796
0.119872 0.760176 0.628290
0.775240 0.547368 0.362823
0.016439 0.533931 0.630601
0.020375 0.691216 0.520563
0.860612 0.466153 0.546173
0.172626 0.371848 0.288299
0.086984 0.783702 0.502139
0.751470 0.589288 0.548961
0.352750 0.607882 0.393189
0.809562 0.536597 0.561535
0.725439 0.607169 0.521001
0.210867 0.771640 0.611459
0.749977 0.595666 0.520908
0.567866 0.611106 0.574676
0.523378 0.615531 0.428269
0.649134 0.633617 0.474677
0.655430 0.632827 0.476957
0.173173 0.788757 0.382677
0.127396 0.790773 0.488025
0.571200 0.435537 0.692954
0.079912 0.469210 0.380548
0.051640 0.470887 0.457586
0.142331 0.367077 0.663233
0.148911 0.367284 0.665411
0.155341 0.367347 0.666207
0.161821 0.367484 0.668589
0.168263 0.367807 0.672548
0.047713 0.672751 0.430818
0.181000 0.368402 0.680164
0.187471 0.368569 0.682493
0.193947 0.368738 0.684801
0.200416 0.368880 0.687055
0.206773 0.368986 0.688154
0.213184 0.369045 0.688986
0.219607 0.368986 0.688166
0.226028 0.368988 0.687602
0.232454 0.368990 0.687904
0.238883 0.368988 0.688189
0.245296 0.368977 0.688116
0.251727 0.368933 0.687498
0.258083 0.368842 0.686281
0.264566 0.368729 0.684844
0.270975 0.368659 0.684507
0.277401 0.368651 0.684498
0.283835 0.368714 0.684233
0.290254 0.368698 0.684160
0.296693 0.368645 0.683397
0.303033 0.368451 0.681398
0.309674 0.368310 0.677998
0.316213 0.368085 0.675065
0.322605 0.367898 0.672600
0.328892 0.367772 0.671511
0.335246 0.367747 0.671309
0.341645 0.367682 0.670799
0.348002 0.367724 0.671295
0.354482 0.367946 0.674284
0.360941 0.368139 0.676548
0.367428 0.368228 0.677056
0.373753 0.368185 0.677524
0.380240 0.368406 0.678627
0.386627 0.368548 0.681393
0.393059 0.368749 0.682601
0.399466 0.368657 0.681772
0.405877 0.368538 0.681247
0.412385 0.368480 0.680241
0.418740 0.368443 0.680701
0.425466 0.368654 0.685433
0.741529 0.601864 0.490305
0.746854 0.598884 0.492280
0.752169 0.595852 0.494234
0.757350 0.592615 0.496197
0.762406 0.589064 0.498044
0.767504 0.585769 0.500008
0.772482 0.582063 0.501841
0.782034 0.574002 0.505422
0.777238 0.577901 0.503594
0.489439 0.373025 0.750650
0.495866 0.373213 0.753683
0.502283 0.373349 0.755963
0.508640 0.373503 0.757650
0.515135 0.373586 0.759033
0.521463 0.373720 0.760152
0.527968 0.373595 0.760442
0.534352 0.373595 0.759699
0.540725 0.373712 0.760155
0.547159 0.373796 0.761117
0.553571 0.373819 0.761730
0.560018 0.373873 0.761901
0.566438 0.373888 0.761954
0.572862 0.373788 0.761638
0.579313 0.373776 0.760419
0.585717 0.373691 0.759513
0.592152 0.373633 0.758673
0.598552 0.373583 0.757872
0.604986 0.373528 0.757132
0.611402 0.373464 0.756240
0.617846 0.373427 0.754929
0.624288 0.373358 0.753469
0.630621 0.373211 0.752282
0.637118 0.373175 0.750967
0.643535 0.373092 0.749424
0.649910 0.372892 0.747657
0.656280 0.372691 0.745955
0.662736 0.372664 0.744533
0.669203 0.372645 0.743151
0.675585 0.372523 0.742222
0.682040 0.372499 0.740815
0.688439 0.372336 0.738464
0.605403 0.632673 0.486183
0.155409 0.543193 0.736421
0.148987 0.543129 0.737455
0.142524 0.543167 0.737348
0.136089 0.543174 0.736492
0.726922 0.370328 0.706794
0.733355 0.370303 0.706662
0.739754 0.370234 0.707058
0.746195 0.370296 0.707193
0.752602 0.370264 0.706501
0.341635 0.528440 0.614261
0.593524 0.558774 0.312667
0.457002 0.546719 0.610351
0.155302 0.723355 0.674718
0.222538 0.787010 0.540441
0.180548 0.839958 0.024973
0.839436 0.464541 0.347265
0.878437 0.439923 0.501215
0.515069 0.573784 0.609963
0.161845 0.588376 0.735592
0.579308 0.583020 0.617829
0.887683 0.413133 0.513985
0.892485 0.413429 0.449832
0.548697 0.926554 0.219286
0.534316 0.574201 0.617365
0.296696 0.792674 0.458905
0.155151 0.714183 0.681758
0.540395 0.848455 0.283396
0.023811 0.533610 0.592117
0.300753 0.597079 0.351806
0.714071 0.520258 0.638946
0.853066 0.492916 0.494789
0.401557 0.563912 0.572692
0.746196 0.592397 0.547002
0.545685 0.623540 0.464290
0.797082 0.552185 0.556813
0.719931 0.609873 0.518980
0.226240 0.761126 0.617281
0.760280 0.589019 0.524733
0.153750 0.792411 0.525314
0.515375 0.612988 0.425316
0.531440 0.617920 0.431249
0.642513 0.634067 0.472268
0.192015 0.772019 0.389923
0.177724 0.784254 0.384393
0.370481 0.568993 0.580491
0.227982 0.788301 0.486475
0.095352 0.554028 0.365291
0.008239 0.542056 0.502091
0.142339 0.376198 0.663226
0.148814 0.376379 0.665642
0.155161 0.376386 0.666725
0.161783 0.376551 0.667799
0.168083 0.376716 0.669723
0.174077 0.376194 0.673531
0.181093 0.377254 0.677527
0.187529 0.377437 0.679931
0.193992 0.377586 0.682270
0.200306 0.377825 0.684985
0.206746 0.377945 0.686618
0.213239 0.377991 0.687805
0.219610 0.378045 0.688142
0.226040 0.378104 0.688882
0.232453 0.378110 0.688974
0.238868 0.378112 0.688974
0.245291 0.378096 0.688888
0.251684 0.378033 0.688025
0.258098 0.377844 0.685654
0.264532 0.377629 0.683044
0.270986 0.377547 0.681004
0.277408 0.377536 0.680962
0.283821 0.377592 0.681510
0.290290 0.377577 0.681318
0.296831 0.377510 0.680176
0.303216 0.377390 0.678829
0.309642 0.377207 0.676304
0.316102 0.377095 0.674764
0.322443 0.377013 0.673756
0.328903 0.377196 0.672852
0.335235 0.376835 0.671385
0.341636 0.376735 0.670225
0.348063 0.376772 0.670973
0.354470 0.376964 0.673491
0.361043 0.377200 0.676343
0.367373 0.377333 0.678241
0.373890 0.377541 0.680234
0.380202 0.377648 0.682242
0.386653 0.377787 0.683623
0.393071 0.377823 0.683309
0.399443 0.377685 0.681927
0.405870 0.377597 0.681432
0.412292 0.377510 0.680740
0.418750 0.377526 0.680592
0.425176 0.377640 0.682422
0.431340 0.377972 0.685981
0.822536 0.532968 0.520709
0.818342 0.538023 0.519092
0.814106 0.543039 0.517482
0.809723 0.547612 0.515758
0.805287 0.552448 0.514125
0.796080 0.561170 0.510635
0.786740 0.569738 0.507175
0.791428 0.565486 0.508915
0.800714 0.556835 0.512395
0.495911 0.381836 0.749004
0.502484 0.382124 0.752329
0.508644 0.382291 0.753889
0.515062 0.382216 0.754549
0.521482 0.382394 0.756159
0.527908 0.382496 0.757677
0.534297 0.382567 0.757847
0.540730 0.382550 0.757825
0.547139 0.382605 0.757950
0.553604 0.382564 0.758505
0.559995 0.382674 0.758795
0.566419 0.382607 0.759257
0.572860 0.382650 0.758742
0.579289 0.382616 0.757988
0.585720 0.382552 0.757187
0.592144 0.382553 0.756556
0.598520 0.382391 0.756113
0.604996 0.382394 0.754873
0.611407 0.382325 0.754011
0.617852 0.382293 0.752654
0.624259 0.382194 0.751717
0.630735 0.382168 0.750346
0.637080 0.381976 0.748558
0.643475 0.381779 0.746104
0.649898 0.381641 0.743149
0.656269 0.381340 0.740542
0.662705 0.381259 0.739067
0.669117 0.381149 0.738191
0.675552 0.381088 0.737404
0.681999 0.381128 0.736075
0.688429 0.381027 0.733831
0.612423 0.632975 0.488756
0.825174 0.513360 0.567429
0.492143 0.574311 0.595311
0.032120 0.673939 0.604183
0.160462 0.792051 0.527699
0.726879 0.379171 0.704207
0.733374 0.379185 0.704284
0.739810 0.379172 0.705150
0.746146 0.379165 0.705316
0.752519 0.379144 0.704650
0.730772 0.604208 0.522971
0.123188 0.660625 0.722586
0.463429 0.546918 0.614414
0.181357 0.722481 0.660781
0.137905 0.894159 0.082406
0.604952 0.521542 0.664063
0.715116 0.565133 0.609682
0.104106 0.669578 0.717184
0.290935 0.717908 0.457658
0.375038 0.598877 0.382486
0.560105 0.582859 0.615324
0.886791 0.422114 0.424216
0.892458 0.413403 0.443434
0.264433 0.773368 0.490551
0.561169 0.626675 0.469956
0.110487 0.678659 0.711889
0.136075 0.714382 0.685988
0.752515 0.593129 0.531028
0.408236 0.868834 0.355348
0.365746 0.606084 0.398109
0.259352 0.775243 0.507251
0.266808 0.823728 0.435132
0.174210 0.792045 0.532520
0.740864 0.595313 0.545017
0.553412 0.625172 0.467121
0.035531 0.385112 0.534941
0.839547 0.495023 0.563622
0.060370 0.769797 0.550294
0.765183 0.585274 0.526584
0.665244 0.601427 0.590988
0.845957 0.488652 0.556865
0.539517 0.620207 0.434248
0.837672 0.506680 0.544569
0.050163 0.383676 0.419362
0.014234 0.594741 0.630283
0.157359 0.791897 0.535923
0.118931 0.779797 0.410165
0.491064 0.989529 0.279899
0.019488 0.533777 0.604951
0.142555 0.384609 0.662899
0.148870 0.385509 0.665514
0.155278 0.385603 0.667235
0.161846 0.385680 0.668444
0.168114 0.385746 0.668968
0.174656 0.385875 0.671008
0.180981 0.386105 0.673704
0.187466 0.386311 0.676826
0.194003 0.386443 0.679810
0.200320 0.386706 0.682507
0.206920 0.386776 0.685197
0.213241 0.386907 0.686273
0.219621 0.386998 0.687147
0.226021 0.387092 0.687530
0.232458 0.387109 0.688142
0.238889 0.387142 0.687650
0.245289 0.387031 0.687236
0.251749 0.386971 0.685886
0.258158 0.386802 0.683436
0.264573 0.386613 0.680961
0.270986 0.386518 0.679555
0.277403 0.386542 0.680142
0.283817 0.386658 0.681832
0.290260 0.386749 0.683214
0.296744 0.386611 0.681403
0.303182 0.386415 0.678741
0.309600 0.386305 0.677004
0.316026 0.386244 0.676158
0.322348 0.386123 0.674266
0.328814 0.385939 0.671889
0.335146 0.385637 0.670292
0.341620 0.385770 0.669451
0.348044 0.385818 0.670306
0.354406 0.386004 0.672837
0.361101 0.386234 0.676230
0.367399 0.386446 0.678997
0.373855 0.386614 0.681272
0.380300 0.386726 0.682673
0.386717 0.386796 0.683279
0.393061 0.386765 0.682911
0.399471 0.386787 0.682761
0.405895 0.386813 0.682743
0.412321 0.386763 0.681948
0.418738 0.386720 0.682205
0.425175 0.386765 0.683107
0.431548 0.386883 0.684898
0.437136 0.387137 0.687523
0.517248 0.618274 0.491004
0.826714 0.527554 0.522233
0.830755 0.521947 0.523725
0.834644 0.516173 0.525156
0.842330 0.504137 0.527933
0.849885 0.491953 0.530707
0.509177 0.615955 0.488088
0.846131 0.497849 0.529278
0.838551 0.509994 0.526527
0.502188 0.390780 0.745455
0.508718 0.390721 0.748248
0.515081 0.390841 0.748407
0.521184 0.391047 0.749008
0.527879 0.391186 0.751692
0.534346 0.391126 0.753678
0.540749 0.391245 0.753874
0.547171 0.391192 0.753805
0.553592 0.391230 0.753847
0.560006 0.391263 0.754612
0.566424 0.391397 0.754815
0.572842 0.391345 0.754739
0.579274 0.391257 0.754564
0.585691 0.391197 0.753767
0.592117 0.391245 0.753202
0.598529 0.391134 0.752952
0.604934 0.391042 0.752079
0.611361 0.391029 0.751380
0.617806 0.391054 0.750761
0.624215 0.390984 0.749257
0.630731 0.390979 0.747250
0.637067 0.390717 0.744686
0.643467 0.390477 0.741512
0.649909 0.390322 0.738468
0.656209 0.390098 0.735971
0.662632 0.389828 0.734226
0.669121 0.389856 0.732888
0.675523 0.389735 0.732014
0.681913 0.389596 0.730405
0.688359 0.389541 0.728216
0.694681 0.389302 0.725771
0.855100 0.484156 0.526951
0.869344 0.466584 0.475520
0.283846 0.783439 0.466232
0.720394 0.388355 0.706670
0.726802 0.388162 0.703307
0.733332 0.388121 0.703230
0.739741 0.388103 0.703706
0.746160 0.388129 0.703836
0.752509 0.388004 0.702256
0.142512 0.552300 0.740580
0.399447 0.545923 0.596360
0.469925 0.546976 0.617578
0.136038 0.561369 0.741395
0.211157 0.916567 0.020983
0.549266 0.867929 0.264299
0.641291 0.608357 0.582386
0.098094 0.669552 0.715818
0.412478 0.916908 0.370171
0.160389 0.787645 0.415541
0.566488 0.583052 0.616269
0.887860 0.422258 0.430582
0.890988 0.413355 0.430603
0.450287 0.590078 0.523401
0.136160 0.579442 0.741276
0.104216 0.678345 0.711472
0.142440 0.714299 0.685100
0.396569 0.567445 0.570754
0.231278 0.740208 0.619321
0.084956 0.633547 0.729621
0.091139 0.606597 0.737054
0.137793 0.921159 0.056423
0.167900 0.792822 0.530250
0.756418 0.585570 0.550799
0.538370 0.622249 0.461605
0.361144 0.604606 0.386924
0.835798 0.501337 0.562212
0.163809 0.790272 0.556966
0.755061 0.592217 0.522787
0.744660 0.598672 0.518953
0.842436 0.495017 0.555505
0.547196 0.622069 0.437074
0.841407 0.500341 0.545926
0.182516 0.780279 0.386219
0.187125 0.775860 0.388010
0.676254 0.588588 0.604209
0.070444 0.778127 0.496474
0.544452 0.421552 0.722242
0.680947 0.584632 0.606280
0.313485 0.466622 0.267783
0.148772 0.394552 0.664913
0.155414 0.394710 0.667661
0.161899 0.394803 0.669035
0.168246 0.394824 0.669292
0.174683 0.394809 0.669267
0.180992 0.394966 0.670474
0.187571 0.395073 0.673300
0.193803 0.395417 0.676210
0.200310 0.395561 0.679266
0.206864 0.395658 0.682187
0.213264 0.395726 0.683730
0.219682 0.395742 0.684424
0.226029 0.395920 0.684852
0.232459 0.395837 0.685298
0.238887 0.395959 0.684958
0.245267 0.395848 0.684677
0.251666 0.395716 0.682963
0.258126 0.395606 0.680688
0.264567 0.395500 0.679047
0.270992 0.395541 0.679169
0.277419 0.395644 0.680702
0.283889 0.395848 0.683433
0.290259 0.395936 0.684761
0.296655 0.395888 0.683944
0.303245 0.395534 0.680397
0.309816 0.395439 0.677648
0.315959 0.395320 0.676002
0.322578 0.395108 0.673244
0.328869 0.394989 0.671310
0.335290 0.394881 0.669219
0.341621 0.394769 0.668097
0.348015 0.394828 0.668864
0.354521 0.395002 0.671704
0.361023 0.395182 0.674788
0.367553 0.395371 0.677760
0.373866 0.395509 0.679622
0.380267 0.395651 0.681266
0.386602 0.395774 0.682430
0.393044 0.395812 0.683108
0.399519 0.395876 0.683378
0.405886 0.395890 0.683884
0.412303 0.396012 0.685460
0.418755 0.396132 0.686755
0.425139 0.396123 0.687073
0.431619 0.396069 0.687034
0.437924 0.396143 0.684241
0.444391 0.395385 0.684085
0.180846 0.781505 0.413638
0.315779 0.635422 0.474131
0.405338 0.596045 0.507090
0.416902 0.591812 0.511334
0.522357 0.610091 0.548979
0.611451 0.609777 0.581003
0.653783 0.598473 0.596324
0.641795 0.601909 0.591984
0.617469 0.608171 0.583250
0.508603 0.399514 0.740131
0.515122 0.399281 0.741363
0.521519 0.399353 0.740703
0.527759 0.399814 0.741847
0.534366 0.399436 0.746002
0.540765 0.399762 0.747598
0.547209 0.399614 0.748151
0.553580 0.399907 0.747784
0.560025 0.399789 0.749061
0.566419 0.400003 0.749307
0.572856 0.399968 0.749281
0.579270 0.399846 0.749118
0.585688 0.399640 0.748808
0.592119 0.399762 0.748273
0.598537 0.399743 0.748230
0.604948 0.399760 0.747551
0.611310 0.399582 0.747281
0.617669 0.399963 0.745762
0.624189 0.399613 0.744513
0.630507 0.399326 0.742712
0.636945 0.399204 0.739711
0.643452 0.399170 0.736858
0.649821 0.398938 0.734420
0.656292 0.398850 0.731467
0.662660 0.398585 0.728995
0.669079 0.398432 0.726662
0.675449 0.398143 0.724910
0.681825 0.397911 0.723190
0.688319 0.398027 0.721178
0.694609 0.397752 0.719398
0.237470 0.781743 0.555149
0.767335 0.581947 0.536539
0.773681 0.573315 0.548080
0.720320 0.397189 0.704761
0.726906 0.397138 0.702563
0.733362 0.397087 0.701718
0.739722 0.397043 0.702069
0.746153 0.397025 0.701552
0.752512 0.396879 0.699870
0.393038 0.546134 0.597428
0.579348 0.547901 0.647806
0.129692 0.561395 0.740125
0.047776 0.471201 0.483223
0.170304 0.269697 0.643571
0.399629 0.916702 0.378654
0.669155 0.565422 0.627762
0.854262 0.474580 0.398586
0.460473 0.573257 0.574571
0.572915 0.582911 0.617744
0.879457 0.421896 0.539792
0.837844 0.409698 0.321549
0.175636 0.784729 0.579901
0.148971 0.579494 0.740442
0.097799 0.678473 0.709425
0.148732 0.714055 0.683974
0.665795 0.630284 0.508233
0.841608 0.443584 0.600598
0.097633 0.633765 0.734430
0.847851 0.465183 0.372835
0.848693 0.492563 0.411372
0.576323 0.416509 0.733560
0.761305 0.581800 0.552616
0.530250 0.620117 0.458634
0.367471 0.603380 0.389338
0.816809 0.531645 0.555104
0.443522 0.574221 0.558993
0.112525 0.779932 0.426663
0.733754 0.604144 0.514911
0.838783 0.501407 0.554155
0.554929 0.623733 0.439916
0.680180 0.627593 0.486016
0.686121 0.625788 0.488204
0.691752 0.623444 0.490272
0.697613 0.621414 0.492465
0.703003 0.618666 0.494429
0.366122 0.606013 0.502250
0.270769 0.750548 0.521317
0.050403 0.654780 0.411968
0.148776 0.403570 0.663252
0.155347 0.403714 0.666245
0.161814 0.403798 0.667718
0.168237 0.403863 0.668517
0.174712 0.403810 0.668304
0.181060 0.403888 0.668650
0.187467 0.404008 0.670327
0.194031 0.404116 0.673174
0.200299 0.404380 0.675237
0.206899 0.404371 0.677953
0.213207 0.404559 0.679087
0.219650 0.404584 0.679841
0.226047 0.404613 0.680598
0.232449 0.404588 0.680530
0.238868 0.404569 0.679774
0.245296 0.404571 0.679085
0.251729 0.404576 0.677812
0.258144 0.404471 0.677475
0.264573 0.404479 0.677510
0.271056 0.404452 0.677941
0.277435 0.404648 0.679889
0.283848 0.404820 0.682381
0.290253 0.404860 0.683083
0.296737 0.404909 0.682869
0.303301 0.404729 0.679948
0.309837 0.404535 0.676745
0.316042 0.404328 0.674686
0.322560 0.404204 0.672563
0.328860 0.404076 0.671368
0.335330 0.403898 0.669226
0.341640 0.403841 0.668007
0.348090 0.403848 0.668374
0.354544 0.403931 0.670001
0.360998 0.404101 0.672433
0.367392 0.404275 0.674924
0.373902 0.404346 0.677050
0.380340 0.404452 0.678638
0.386660 0.404671 0.680570
0.393056 0.404820 0.682333
0.399462 0.404933 0.683962
0.405908 0.404988 0.685183
0.412309 0.405065 0.686114
0.418719 0.405131 0.686342
0.425114 0.404994 0.685189
0.431549 0.404780 0.682063
0.437972 0.404569 0.678496
0.444463 0.404567 0.678918
0.450785 0.404816 0.681757
0.681777 0.593611 0.597048
0.515089 0.585595 0.593630
0.413091 0.590380 0.519448
0.633143 0.422488 0.715380
0.033337 0.656187 0.591399
0.606711 0.415928 0.734699
0.652793 0.611613 0.577322
0.502473 0.407001 0.726642
0.509458 0.407534 0.729908
0.515204 0.407463 0.732711
0.521658 0.407426 0.733399
0.527948 0.407837 0.732976
0.534438 0.408002 0.735296
0.540876 0.408036 0.738984
0.547218 0.408205 0.740570
0.553603 0.408355 0.740711
0.560039 0.408195 0.741274
0.566463 0.408264 0.742052
0.572865 0.408376 0.742175
0.579288 0.408278 0.742072
0.585696 0.408437 0.741513
0.592112 0.408256 0.742031
0.598528 0.408395 0.742172
0.604932 0.408282 0.742057
0.611298 0.408182 0.741199
0.617784 0.408242 0.739073
0.624044 0.407814 0.737966
0.630489 0.407796 0.735798
0.636966 0.407784 0.733600
0.643285 0.407491 0.731829
0.649710 0.407356 0.728831
0.656236 0.407333 0.725181
0.662599 0.407005 0.721905
0.669098 0.406907 0.718898
0.675426 0.406624 0.717800
0.681945 0.406798 0.715826
0.688246 0.406520 0.714709
0.694625 0.406441 0.712403
0.701074 0.406405 0.709532
0.707538 0.406333 0.706509
0.714092 0.406323 0.704371
0.720511 0.406214 0.702683
0.726951 0.406116 0.701069
0.733294 0.405987 0.700514
0.739739 0.405945 0.699879
0.746099 0.405847 0.699020
0.752591 0.405763 0.696908
0.386608 0.546051 0.598132
0.585738 0.548029 0.647981
0.123137 0.561279 0.738156
0.393020 0.554542 0.589606
0.129757 0.740933 0.659831
0.322382 0.563026 0.574935
0.662756 0.565518 0.628684
0.034096 0.515152 0.536853
0.633453 0.633810 0.496458
0.783275 0.565287 0.551651
0.342093 0.591562 0.344278
0.136487 0.742712 0.205963
0.576275 0.629231 0.475500
0.181868 0.299458 0.666338
0.091414 0.678454 0.706429
0.844323 0.492537 0.398954
0.580581 0.630149 0.486292
0.874069 0.457714 0.430567
0.104078 0.633707 0.735735
0.016475 0.533912 0.624184
0.431478 0.953876 0.341249
0.313788 0.383816 0.257388
0.159037 0.518145 0.338548
0.176460 0.791891 0.505360
0.765980 0.577535 0.554371
0.490267 0.608935 0.444001
0.373615 0.602185 0.391430
0.812871 0.537271 0.553603
0.339624 0.616475 0.464081
0.739310 0.601620 0.516974
0.477771 0.589096 0.552216
0.562254 0.624863 0.442630
0.570388 0.626784 0.445651
0.411884 0.584600 0.386819
0.405659 0.585807 0.384402
0.008955 0.611710 0.488922
0.040378 0.436930 0.528259
0.708705 0.616430 0.496514
0.445108 0.585839 0.530989
0.167282 0.791191 0.548826
0.148819 0.412493 0.660701
0.155163 0.412726 0.663381
0.162203 0.412796 0.665399
0.168185 0.412828 0.666307
0.174634 0.412861 0.666995
0.181015 0.412901 0.667181
0.187408 0.412981 0.668124
0.193978 0.413024 0.670015
0.200327 0.413137 0.671095
0.206728 0.413292 0.672822
0.213196 0.413337 0.674273
0.219621 0.413365 0.675002
0.226047 0.413360 0.675015
0.232425 0.413505 0.674792
0.238876 0.413389 0.674401
0.245293 0.413413 0.674560
0.251714 0.413392 0.675101
0.258136 0.413440 0.675232
0.264569 0.413389 0.675081
0.271036 0.413382 0.675663
0.277432 0.413584 0.678226
0.283848 0.413748 0.680026
0.290263 0.413818 0.680250
0.296678 0.413740 0.680000
0.303063 0.413519 0.677556
0.309557 0.413398 0.674480
0.315919 0.413276 0.673365
0.322474 0.413274 0.672368
0.328716 0.413066 0.670898
0.335232 0.412977 0.668718
0.341619 0.412870 0.667573
0.348060 0.412874 0.667077
0.354427 0.412988 0.668088
0.360815 0.413126 0.669782
0.367381 0.413134 0.671679
0.373893 0.413186 0.673862
0.380356 0.413274 0.675406
0.386748 0.413461 0.677870
0.392882 0.413850 0.680333
0.399511 0.413816 0.682171
0.405888 0.413924 0.683117
0.412292 0.413912 0.683685
0.418676 0.413792 0.683250
0.425113 0.413674 0.680349
0.431560 0.413522 0.677326
0.438000 0.413604 0.678206
0.444429 0.413778 0.680685
0.450922 0.414029 0.682946
0.457347 0.414017 0.685262
0.424359 0.585653 0.523603
0.895712 0.242799 0.547150
0.426637 0.575062 0.543405
0.899189 0.236587 0.548106
0.257146 0.778416 0.497103
0.936872 0.229541 0.562277
0.904287 0.232825 0.550482
0.508623 0.415932 0.711669
0.880437 0.367222 0.353568
0.009687 0.568761 0.636847
0.001468 0.568331 0.534088
0.291203 0.698126 0.457737
0.172379 0.858269 0.044081
0.547255 0.416495 0.730522
0.553660 0.416543 0.732026
0.560059 0.416484 0.731976
0.566461 0.416634 0.732808
0.572884 0.416545 0.733467
0.207924 0.775115 0.200819
0.207955 0.835732 0.117396
0.592120 0.416454 0.734116
0.598514 0.416504 0.734158
0.604877 0.416522 0.734154
0.611207 0.416261 0.733231
0.617524 0.415863 0.730771
0.624028 0.416034 0.728008
0.630413 0.415972 0.726476
0.636837 0.415814 0.724915
0.643163 0.415472 0.723150
0.649781 0.415689 0.718087
0.656232 0.415513 0.714924
0.662681 0.415548 0.713427
0.669106 0.415428 0.712427
0.675556 0.415550 0.711096
0.681896 0.415286 0.710705
0.688289 0.415391 0.709292
0.694741 0.415410 0.707249
0.701095 0.415276 0.705472
0.707514 0.415184 0.703807
0.713942 0.415154 0.702180
0.720446 0.415051 0.700692
0.726899 0.414985 0.699805
0.733274 0.414890 0.698877
0.739669 0.414802 0.698053
0.746032 0.414672 0.696483
0.752463 0.414512 0.694189
0.380191 0.546115 0.598234
0.592148 0.548042 0.647998
0.116166 0.561491 0.735245
0.399452 0.554465 0.587186
0.123367 0.741010 0.658295
0.329542 0.563341 0.576136
0.656312 0.565287 0.629101
0.147616 0.813208 0.134494
0.630085 0.633200 0.504405
0.788019 0.561093 0.553431
0.190724 0.639706 0.344017
0.270942 0.811653 0.450005
0.691951 0.620457 0.527010
0.846336 0.456050 0.353512
0.592447 0.630233 0.453795
0.110566 0.696380 0.699699
0.335484 0.612654 0.405837
0.845501 0.483674 0.565587
0.116854 0.633881 0.735508
0.128495 0.788146 0.395039
0.438279 0.954923 0.342583
0.140005 0.517361 0.348806
0.626580 0.621806 0.558578
0.770580 0.573161 0.556088
0.482180 0.606655 0.441044
0.727436 0.603482 0.530933
0.808621 0.542281 0.552018
0.309838 0.640213 0.519041
0.728408 0.607118 0.512931
0.486343 0.591890 0.555073
0.196331 0.786290 0.568446
0.451632 0.576501 0.561796
0.103609 0.775096 0.423579
0.328389 0.621061 0.459896
0.313355 0.633746 0.520451
0.105958 0.787966 0.499291
0.131782 0.759694 0.192622
0.714565 0.614433 0.498665
0.452135 0.586282 0.533547
0.150628 0.861776 0.262580
0.155221 0.421593 0.659977
0.161839 0.421556 0.661948
0.168218 0.421725 0.663725
0.174697 0.421797 0.665185
0.180965 0.421912 0.665704
0.187417 0.422001 0.667264
0.193993 0.422041 0.669111
0.200261 0.422086 0.668858
0.206766 0.422147 0.670207
0.213187 0.422280 0.671866
0.219671 0.422226 0.672284
0.225998 0.422337 0.672128
0.232434 0.422368 0.672900
0.238874 0.422380 0.673483
0.245299 0.422496 0.674618
0.251691 0.422507 0.675386
0.258286 0.422482 0.673271
0.264551 0.422297 0.672002
0.271018 0.422267 0.673156
0.277478 0.422405 0.675568
0.283835 0.422613 0.676841
0.290265 0.422712 0.677061
0.296687 0.422644 0.676873
0.303092 0.422491 0.674429
0.309545 0.422298 0.671990
0.315989 0.422292 0.671340
0.322391 0.422251 0.671203
0.328878 0.422204 0.669932
0.335183 0.422008 0.668368
0.341642 0.421894 0.666226
0.348057 0.421829 0.665349
0.354407 0.421935 0.665693
0.360849 0.421978 0.667061
0.367290 0.422186 0.669597
0.373763 0.422258 0.671841
0.380254 0.422210 0.672426
0.386642 0.422361 0.674151
0.393118 0.422510 0.677257
0.399412 0.422766 0.679223
0.405921 0.422692 0.680428
0.412295 0.422743 0.679852
0.418639 0.422624 0.678121
0.425172 0.422448 0.676214
0.431519 0.422695 0.677158
0.438000 0.422800 0.679906
0.444492 0.422965 0.682848
0.450922 0.423048 0.684415
0.457239 0.423156 0.684985
0.463697 0.423043 0.684498
0.470092 0.422996 0.683162
0.476519 0.422953 0.683079
0.306137 0.646109 0.517559
0.065754 0.773702 0.542416
0.658750 0.609764 0.579398
0.187473 0.789463 0.472038
0.931246 0.232095 0.560383
0.345052 0.572744 0.571143
0.521693 0.423696 0.702654
0.059842 0.506070 0.573259
0.045686 0.575441 0.392812
0.007978 0.568350 0.566284
0.891827 0.413419 0.437014
0.195238 0.876695 0.007033
0.045678 0.445382 0.534611
0.105996 0.822790 0.250090
0.097631 0.502371 0.688340
0.127127 0.231628 0.554708
0.539709 0.850555 0.270156
0.201793 0.806265 0.290848
0.207926 0.805680 0.271611
0.548997 0.897235 0.220332
0.896288 0.368565 0.520515
0.278567 0.727561 0.489926
0.032146 0.385015 0.490096
0.630368 0.423857 0.714134
0.636959 0.423863 0.710247
0.643488 0.424224 0.707399
0.649938 0.423974 0.706349
0.656377 0.423981 0.706217
0.662810 0.424102 0.706884
0.669211 0.424384 0.707264
0.675742 0.424009 0.707762
0.681977 0.424404 0.707120
0.688353 0.424418 0.706407
0.694708 0.424338 0.705347
0.701218 0.424330 0.703419
0.707628 0.424191 0.701710
0.714113 0.424161 0.700288
0.720441 0.423978 0.699053
0.726806 0.423913 0.698066
0.733308 0.423816 0.696750
0.739677 0.423665 0.695060
0.746014 0.423464 0.693284
0.373743 0.545801 0.598588
0.598575 0.548055 0.648774
0.662297 0.632532 0.479474
0.054560 0.681453 0.417958
0.604963 0.530399 0.659323
0.336068 0.563289 0.577825
0.649925 0.565563 0.628026
0.865466 0.402426 0.353737
0.483708 0.608164 0.460248
0.874271 0.430546 0.546129
0.147227 0.894358 0.069654
0.277364 0.811762 0.450958
0.386439 0.604574 0.424698
0.142443 0.839354 0.306987
0.144025 0.774582 0.607175
0.097701 0.705461 0.687085
0.897972 0.386654 0.475476
0.246072 0.205705 0.613423
0.210082 0.775532 0.233101
0.129577 0.570354 0.739839
0.853914 0.493013 0.475530
0.288193 0.383579 0.259038
0.300965 0.383658 0.258521
0.307391 0.383730 0.258222
0.620251 0.622667 0.556228
0.775189 0.568787 0.557808
0.474543 0.604651 0.438232
0.732705 0.600984 0.533397
0.804362 0.547284 0.550413
0.161441 0.839348 0.303607
0.717551 0.612725 0.508927
0.722910 0.609815 0.510906
0.604480 0.632571 0.467448
0.597138 0.631530 0.464726
0.590102 0.630958 0.462134
0.582773 0.630001 0.459443
0.574643 0.628081 0.456451
0.567311 0.626886 0.453744
0.535549 0.425073 0.709454
0.382117 0.593110 0.375673
0.720193 0.612037 0.500742
0.459452 0.587445 0.536235
0.155374 0.430336 0.656374
0.161867 0.430431 0.658658
0.168151 0.430668 0.660636
0.174683 0.430720 0.662779
0.180909 0.430976 0.664189
0.187489 0.431015 0.666938
0.193909 0.431143 0.668667
0.200281 0.431156 0.668782
0.206795 0.431150 0.669214
0.213199 0.431285 0.670973
0.219630 0.431278 0.670943
0.226034 0.431355 0.671901
0.232444 0.431432 0.672809
0.238876 0.431477 0.673600
0.245300 0.431535 0.674406
0.251743 0.431580 0.674019
0.258148 0.431400 0.672021
0.264564 0.431265 0.669661
0.270979 0.431214 0.669468
0.277390 0.431407 0.671284
0.283814 0.431477 0.672815
0.290263 0.431477 0.673544
0.296676 0.431413 0.672710
0.303105 0.431272 0.670306
0.309544 0.431201 0.668773
0.316006 0.431298 0.669173
0.322374 0.431208 0.669512
0.328906 0.431233 0.668501
0.335246 0.431066 0.667150
0.341733 0.430925 0.664185
0.348060 0.430720 0.662789
0.354465 0.430835 0.663094
0.360903 0.430809 0.664383
0.367410 0.430899 0.666652
0.373814 0.431009 0.668344
0.380075 0.431169 0.668295
0.386670 0.431098 0.669971
0.393139 0.431227 0.673049
0.399493 0.431452 0.674923
0.405818 0.431773 0.676236
0.412265 0.431721 0.676160
0.418694 0.431599 0.675227
0.425186 0.431400 0.674647
0.431561 0.431644 0.676697
0.438027 0.431837 0.679857
0.444480 0.431908 0.681309
0.450878 0.431966 0.682168
0.457255 0.432043 0.682432
0.463673 0.432030 0.682411
0.470082 0.431978 0.682830
0.476501 0.431933 0.682693
0.482931 0.431940 0.680207
0.489349 0.431901 0.678831
0.495760 0.431940 0.678819
0.502145 0.432088 0.679753
0.508598 0.432229 0.681434
0.514840 0.432614 0.682666
0.203618 0.788827 0.552321
0.527416 0.433623 0.683824
0.533919 0.433578 0.685656
0.540504 0.433603 0.688071
0.547461 0.431843 0.699954
0.553839 0.431869 0.703132
0.158321 0.288162 0.648348
0.028719 0.541221 0.431460
0.032401 0.541125 0.425064
0.277211 0.717549 0.496223
0.849709 0.483655 0.398453
0.041250 0.445466 0.521748
0.901537 0.341795 0.488398
0.393088 0.603046 0.445798
0.878070 0.330896 0.347459
0.617748 0.432177 0.699166
0.624246 0.432537 0.694513
0.630728 0.432531 0.694479
0.637149 0.432646 0.695326
0.643726 0.432351 0.697266
0.650142 0.432794 0.698902
0.656650 0.432781 0.701037
0.663006 0.432942 0.702668
0.669300 0.433128 0.703782
0.675667 0.433167 0.705189
0.682024 0.433263 0.705284
0.688354 0.433167 0.704997
0.694730 0.433244 0.703610
0.701154 0.433192 0.702263
0.707457 0.433706 0.700258
0.714091 0.433038 0.698565
0.720441 0.432903 0.697507
0.726820 0.432717 0.695751
0.733245 0.432614 0.694198
0.148964 0.552358 0.740285
0.367334 0.546102 0.598240
0.604959 0.548081 0.648822
0.441606 0.588376 0.398132
0.880133 0.376207 0.360086
0.832422 0.501003 0.570075
0.341629 0.563257 0.579815
0.643500 0.565492 0.627136
0.092645 0.406996 0.342534
0.562058 0.626861 0.488764
0.118838 0.751524 0.321124
0.863117 0.466320 0.533346
0.290264 0.811608 0.451600
0.415462 0.594574 0.435322
0.171697 0.630464 0.340912
0.779349 0.572782 0.531883
0.865413 0.429715 0.366578
0.104842 0.485299 0.361582
0.446592 0.878185 0.275607
0.322140 0.820799 0.438807
0.075029 0.779823 0.507450
0.487187 0.608755 0.452195
0.133637 0.453404 0.322833
0.155508 0.524375 0.725215
0.149798 0.792148 0.514593
0.128457 0.777986 0.591930
0.779811 0.564413 0.559518
0.466098 0.601755 0.435145
0.738653 0.598556 0.535032
0.800094 0.552242 0.548779
0.166776 0.836361 0.305582
0.180278 0.822475 0.310611
0.184119 0.816612 0.312026
0.188175 0.810979 0.313534
0.192462 0.805905 0.315122
0.196065 0.799463 0.316477
0.199457 0.792430 0.317723
0.099139 0.746194 0.641020
0.199665 0.762077 0.627051
0.559968 0.625679 0.451034
0.135813 0.438594 0.641333
0.142314 0.438831 0.645300
0.148944 0.438966 0.649034
0.155369 0.439165 0.652311
0.161832 0.439287 0.654659
0.168194 0.439512 0.657249
0.174839 0.439583 0.659693
0.181054 0.439814 0.662126
0.187568 0.439949 0.665104
0.193992 0.440045 0.666717
0.200391 0.440045 0.667480
0.206797 0.440154 0.667835
0.213179 0.440219 0.668594
0.219636 0.440174 0.669096
0.226031 0.440309 0.670189
0.232454 0.440411 0.671169
0.238876 0.440418 0.671831
0.245296 0.440431 0.671894
0.251731 0.440418 0.671171
0.258185 0.440398 0.669744
0.264607 0.440142 0.667111
0.270977 0.440045 0.665408
0.277415 0.440251 0.666534
0.283823 0.440264 0.667973
0.290260 0.440187 0.668544
0.296675 0.440077 0.666879
0.303105 0.439885 0.665772
0.309517 0.440219 0.666578
0.315942 0.440219 0.667337
0.322419 0.440251 0.667514
0.328834 0.440199 0.667289
0.335348 0.440129 0.665158
0.341820 0.439955 0.661998
0.348102 0.439801 0.660074
0.354186 0.440064 0.660256
0.360910 0.439679 0.661130
0.367317 0.439808 0.662087
0.373720 0.439930 0.663049
0.380195 0.439846 0.663607
0.386545 0.440129 0.665550
0.392915 0.440334 0.667361
0.399417 0.440321 0.669489
0.405839 0.440463 0.671219
0.412287 0.440411 0.671821
0.418767 0.440270 0.671510
0.425168 0.440379 0.672428
0.431593 0.440591 0.674999
0.438077 0.440598 0.676384
0.444446 0.440687 0.677349
0.450862 0.440816 0.679000
0.457242 0.440944 0.679984
0.463678 0.440944 0.680627
0.470095 0.441086 0.681085
0.476616 0.440996 0.679208
0.482936 0.440745 0.677354
0.489356 0.440835 0.677152
0.495782 0.440822 0.678289
0.502237 0.440861 0.679696
0.508640 0.440912 0.679837
0.515107 0.440822 0.678246
0.197254 0.789797 0.550069
0.367098 0.609308 0.483647
0.534302 0.441009 0.680146
0.540819 0.440745 0.680264
0.547173 0.440932 0.679974
0.553557 0.441079 0.680288
0.560022 0.440932 0.680713
0.451881 0.599076 0.448648
0.391411 0.556199 0.588312
0.043443 0.445421 0.528181
0.405982 0.907120 0.375164
0.592175 0.440790 0.680207
0.598553 0.440874 0.681200
0.604958 0.441015 0.682286
0.611477 0.441073 0.682576
0.617800 0.440790 0.682016
0.624278 0.440784 0.682807
0.630814 0.440739 0.684326
0.637672 0.440758 0.686505
0.643997 0.440668 0.690311
0.650302 0.441169 0.693874
0.656698 0.441388 0.696283
0.663042 0.441593 0.697981
0.669410 0.441696 0.699580
0.675751 0.441811 0.701177
0.682076 0.441914 0.701969
0.688381 0.441888 0.701845
0.694790 0.441991 0.700595
0.701187 0.441953 0.699082
0.707530 0.441773 0.698001
0.714026 0.441779 0.695900
0.720400 0.441606 0.694140
0.726840 0.441535 0.691872
0.155434 0.552268 0.738852
0.360912 0.546199 0.598338
0.611333 0.547862 0.648532
0.249326 0.779219 0.540690
0.213127 0.805667 0.226618
0.720547 0.555852 0.618064
0.354402 0.563797 0.584240
0.348030 0.563437 0.582326
0.637064 0.565280 0.627655
0.889552 0.386185 0.546100
0.554691 0.625788 0.486062
0.026240 0.655673 0.495094
0.850157 0.465241 0.379322
0.303015 0.811364 0.449570
0.459897 0.601613 0.451568
0.135989 0.696495 0.698922
0.234568 0.783554 0.544766
0.864710 0.475537 0.475518
0.129660 0.533996 0.731807
0.161911 0.570374 0.739045
0.315959 0.820921 0.440896
0.348560 0.611768 0.410560
0.450120 0.801512 0.381312
0.874790 0.457714 0.456237
0.639264 0.619693 0.563167
0.784428 0.560059 0.561237
0.458074 0.599224 0.432197
0.792593 0.556681 0.555127
0.791082 0.561440 0.545393
0.795704 0.557111 0.547145
0.686654 0.625133 0.506726
0.680704 0.626899 0.504527
0.656279 0.632680 0.495603
0.629839 0.634292 0.485961
0.622850 0.634009 0.483394
0.615476 0.633168 0.480683
0.608075 0.632391 0.477973
0.601062 0.631928 0.475392
0.129297 0.447284 0.634932
0.135994 0.447457 0.638610
0.142481 0.447643 0.641815
0.148745 0.447926 0.644600
0.155320 0.448029 0.647538
0.161734 0.448183 0.650005
0.168235 0.448318 0.653084
0.174695 0.448485 0.656270
0.181065 0.448696 0.658825
0.187537 0.448793 0.661157
0.193965 0.448857 0.662691
0.200357 0.448986 0.663657
0.206765 0.449037 0.664515
0.213191 0.449075 0.665269
0.219633 0.449120 0.666052
0.226024 0.449217 0.666998
0.232453 0.449255 0.667769
0.238904 0.449146 0.668237
0.245314 0.449377 0.667375
0.251736 0.449268 0.667103
0.258083 0.449037 0.665945
0.264611 0.449075 0.663192
0.270979 0.448857 0.662004
0.277408 0.448960 0.662212
0.283829 0.448896 0.662108
0.290250 0.448928 0.661431
0.296650 0.448915 0.660688
0.303093 0.448921 0.662181
0.309532 0.449043 0.664519
0.315930 0.449230 0.665774
0.322380 0.449236 0.665826
0.328860 0.449159 0.664909
0.335204 0.448941 0.662960
0.341777 0.448876 0.659363
0.348179 0.448709 0.656853
0.354513 0.448690 0.655999
0.360902 0.448607 0.656492
0.367293 0.448709 0.656672
0.373753 0.448645 0.658005
0.380123 0.448774 0.658989
0.386577 0.448831 0.660522
0.393050 0.448902 0.662835
0.399415 0.449127 0.664657
0.405865 0.449210 0.666977
0.412278 0.449217 0.667014
0.418742 0.449146 0.667590
0.425203 0.449236 0.669241
0.431565 0.449429 0.670924
0.438027 0.449429 0.671715
0.444365 0.449679 0.673630
0.450856 0.449692 0.675841
0.457284 0.449705 0.676485
0.463662 0.449898 0.677597
0.470099 0.449776 0.677329
0.476525 0.449724 0.675804
0.482933 0.449673 0.675631
0.489358 0.449724 0.676394
0.495780 0.449865 0.677503
0.502236 0.449788 0.677189
0.508605 0.449763 0.675359
0.515033 0.449737 0.675175
0.109078 0.788089 0.491000
0.527906 0.449910 0.678286
0.534371 0.449820 0.677909
0.540717 0.449917 0.677750
0.547163 0.449885 0.677607
0.553624 0.449840 0.678076
0.553605 0.521459 0.660318
0.566415 0.449955 0.677935
0.572848 0.449955 0.678573
0.024691 0.673528 0.520671
0.585717 0.449962 0.679576
0.592127 0.449987 0.679778
0.598525 0.449955 0.680351
0.605570 0.449165 0.681128
0.611349 0.449846 0.680309
0.617735 0.449750 0.679424
0.624281 0.449493 0.678374
0.630687 0.449673 0.678022
0.637253 0.449519 0.680153
0.643836 0.449531 0.683280
0.650527 0.449294 0.686196
0.656696 0.449859 0.688309
0.662987 0.450174 0.690096
0.669412 0.450193 0.692367
0.675808 0.450174 0.694606
0.682110 0.450437 0.695603
0.688454 0.450578 0.695029
0.694833 0.450572 0.694248
0.701152 0.450321 0.693886
0.707563 0.450334 0.692378
0.713970 0.450257 0.690761
0.720431 0.450283 0.688590
0.161896 0.552217 0.737393
0.354478 0.546231 0.599064
0.617766 0.547978 0.647164
0.482062 0.370572 0.747648
0.901145 0.359793 0.475500
0.714091 0.555845 0.619585
0.360888 0.563700 0.585709
0.624145 0.565287 0.630795
0.630604 0.565210 0.629154
0.891056 0.386279 0.539668
0.833525 0.501086 0.385596
0.192945 0.791281 0.501890
0.858921 0.475119 0.533329
0.315906 0.811358 0.444056
0.168238 0.570258 0.736305
0.843850 0.455883 0.347086
0.820749 0.526025 0.556597
0.335190 0.839945 0.428928
0.271040 0.793079 0.465713
0.450053 0.596726 0.429267
0.309458 0.820857 0.443069
