ply
format ascii 1.0
element vertex 1773
property float x
property float y
property float z
end_header
0.282843 0.000000 0.537401
0.282843 0.000000 0.551543
0.282843 0.000000 0.565685
0.282843 0.000000 0.579828
0.282843 0.000000 0.593970
0.282843 0.000000 0.608112
0.282843 0.000000 0.622254
0.282843 0.000000 0.636396
0.282843 0.000000 0.650538
0.282843 0.000000 0.664680
0.282843 0.000000 0.678823
0.282843 0.000000 0.692965
0.282843 0.000000 0.707107
0.282843 0.000000 0.721249
0.282843 0.000000 0.735391
0.282843 0.000000 0.749533
0.282843 0.000000 0.763675
0.282843 0.000000 0.777817
0.282843 0.000000 0.791960
0.282843 0.000000 0.806102
0.282843 0.000000 0.820244
0.282843 0.000000 0.834386
0.282843 0.000000 0.848528
0.282843 0.000000 0.862670
0.282843 0.000000 0.876812
0.282843 0.000000 0.890955
0.282843 0.000000 0.905097
0.282843 0.000000 0.919239
0.282843 0.000000 0.933381
0.282843 0.000000 0.947523
0.282843 0.000000 0.961665
0.282843 0.000000 0.975807
0.282843 0.000000 0.989949
0.296985 0.000000 0.000000
0.296985 0.000000 0.014142
0.296985 0.000000 0.028284
0.296985 0.000000 0.042426
0.296985 0.000000 0.056569
0.296985 0.000000 0.070711
0.296985 0.000000 0.084853
0.296985 0.000000 0.098995
0.296985 0.000000 0.113137
0.296985 0.000000 0.127279
0.296985 0.000000 0.141421
0.296985 0.000000 0.155563
0.296985 0.000000 0.169706
0.296985 0.000000 0.183848
0.296985 0.000000 0.197990
0.296985 0.000000 0.212132
0.296985 0.000000 0.226274
0.296985 0.000000 0.240416
0.296985 0.000000 0.254558
0.296985 0.000000 0.268701
0.296985 0.000000 0.282843
0.296985 0.000000 0.296985
0.296985 0.000000 0.311127
0.296985 0.000000 0.325269
0.296985 0.000000 0.339411
0.296985 0.000000 0.353553
0.296985 0.000000 0.367696
0.296985 0.000000 0.381838
0.296985 0.000000 0.395980
0.296985 0.000000 0.410122
0.296985 0.000000 0.424264
0.296985 0.000000 0.438406
0.296985 0.000000 0.452548
0.296985 0.000000 0.466690
0.296985 0.000000 0.480833
0.296985 0.000000 0.494975
0.296985 0.000000 0.509117
0.296985 0.000000 0.523259
0.296985 0.000000 0.537401
0.296985 0.000000 0.551543
0.296985 0.000000 0.565685
0.296985 0.000000 0.579828
0.296985 0.000000 0.593970
0.296985 0.000000 0.608112
0.296985 0.000000 0.622254
0.296985 0.000000 0.636396
0.296985 0.000000 0.650538
0.296985 0.000000 0.664680
0.296985 0.000000 0.678823
0.296985 0.000000 0.692965
0.296985 0.000000 0.707107
0.296985 0.000000 0.721249
0.296985 0.000000 0.735391
0.296985 0.000000 0.749533
0.296985 0.000000 0.763675
0.296985 0.000000 0.777817
0.296985 0.000000 0.791960
0.296985 0.000000 0.806102
0.296985 0.000000 0.820244
0.296985 0.000000 0.834386
0.296985 0.000000 0.848528
0.296985 0.000000 0.862670
0.296985 0.000000 0.876812
0.296985 0.000000 0.890955
0.296985 0.000000 0.905097
0.296985 0.000000 0.919239
0.296985 0.000000 0.933381
0.296985 0.000000 0.947523
0.296985 0.000000 0.961665
0.296985 0.000000 0.975807
0.296985 0.000000 0.989949
0.311127 0.000000 0.000000
0.311127 0.000000 0.014142
0.311127 0.000000 0.028284
0.311127 0.000000 0.042426
0.311127 0.000000 0.056569
0.311127 0.000000 0.070711
0.311127 0.000000 0.084853
0.311127 0.000000 0.098995
0.311127 0.000000 0.113137
0.311127 0.000000 0.127279
0.311127 0.000000 0.141421
0.311127 0.000000 0.155563
0.311127 0.000000 0.169706
0.311127 0.000000 0.183848
0.311127 0.000000 0.197990
0.311127 0.000000 0.212132
0.311127 0.000000 0.226274
0.311127 0.000000 0.240416
0.311127 0.000000 0.254558
0.311127 0.000000 0.268701
0.311127 0.000000 0.282843
0.311127 0.000000 0.296985
0.311127 0.000000 0.311127
0.311127 0.000000 0.325269
0.311127 0.000000 0.339411
0.311127 0.000000 0.353553
0.311127 0.000000 0.367696
0.311127 0.000000 0.381838
0.311127 0.000000 0.395980
0.311127 0.000000 0.410122
0.311127 0.000000 0.424264
0.311127 0.000000 0.438406
0.311127 0.000000 0.452548
0.311127 0.000000 0.466690
0.311127 0.000000 0.480833
0.311127 0.000000 0.494975
0.311127 0.000000 0.509117
0.311127 0.000000 0.523259
0.311127 0.000000 0.537401
0.311127 0.000000 0.551543
0.311127 0.000000 0.565685
0.311127 0.000000 0.579828
0.311127 0.000000 0.593970
0.311127 0.000000 0.608112
0.311127 0.000000 0.622254
0.311127 0.000000 0.636396
0.311127 0.000000 0.650538
0.311127 0.000000 0.664680
0.311127 0.000000 0.678823
0.311127 0.000000 0.692965
0.311127 0.000000 0.707107
0.311127 0.000000 0.721249
0.311127 0.000000 0.735391
0.311127 0.000000 0.749533
0.311127 0.000000 0.763675
0.311127 0.000000 0.777817
0.311127 0.000000 0.791960
0.311127 0.000000 0.806102
0.311127 0.000000 0.820244
0.311127 0.000000 0.834386
0.311127 0.000000 0.848528
0.311127 0.000000 0.862670
0.311127 0.000000 0.876812
0.311127 0.000000 0.890955
0.311127 0.000000 0.905097
0.311127 0.000000 0.919239
0.311127 0.000000 0.933381
0.311127 0.000000 0.947523
0.311127 0.000000 0.961665
0.311127 0.000000 0.975807
0.311127 0.000000 0.989949
0.325269 0.000000 0.000000
0.325269 0.000000 0.014142
0.325269 0.000000 0.028284
0.325269 0.000000 0.042426
0.325269 0.000000 0.056569
0.325269 0.000000 0.070711
0.325269 0.000000 0.084853
0.325269 0.000000 0.098995
0.325269 0.000000 0.113137
0.325269 0.000000 0.127279
0.325269 0.000000 0.141421
0.325269 0.000000 0.155563
0.325269 0.000000 0.169706
0.325269 0.000000 0.183848
0.325269 0.000000 0.197990
0.325269 0.000000 0.212132
0.325269 0.000000 0.226274
0.325269 0.000000 0.240416
0.325269 0.000000 0.254558
0.325269 0.000000 0.268701
0.325269 0.000000 0.282843
0.325269 0.000000 0.296985
0.325269 0.000000 0.311127
0.325269 0.000000 0.325269
0.325269 0.000000 0.339411
0.325269 0.000000 0.353553
0.325269 0.000000 0.367696
0.325269 0.000000 0.381838
0.325269 0.000000 0.395980
0.325269 0.000000 0.410122
0.325269 0.000000 0.424264
0.325269 0.000000 0.438406
0.325269 0.000000 0.452548
0.325269 0.000000 0.466690
0.325269 0.000000 0.480833
0.325269 0.000000 0.494975
0.325269 0.000000 0.509117
0.325269 0.000000 0.523259
0.325269 0.000000 0.537401
0.325269 0.000000 0.551543
0.325269 0.000000 0.565685
0.325269 0.000000 0.579828
0.325269 0.000000 0.593970
0.325269 0.000000 0.608112
0.325269 0.000000 0.622254
0.325269 0.000000 0.636396
0.325269 0.000000 0.650538
0.325269 0.000000 0.664680
0.325269 0.000000 0.678823
0.325269 0.000000 0.692965
0.325269 0.000000 0.707107
0.325269 0.000000 0.721249
0.325269 0.000000 0.735391
0.325269 0.000000 0.749533
0.325269 0.000000 0.763675
0.325269 0.000000 0.777817
0.325269 0.000000 0.791960
0.325269 0.000000 0.806102
0.325269 0.000000 0.820244
0.325269 0.000000 0.834386
0.325269 0.000000 0.848528
0.325269 0.000000 0.862670
0.325269 0.000000 0.876812
0.325269 0.000000 0.890955
0.325269 0.000000 0.905097
0.325269 0.000000 0.919239
0.325269 0.000000 0.933381
0.325269 0.000000 0.947523
0.325269 0.000000 0.961665
0.325269 0.000000 0.975807
0.325269 0.000000 0.989949
0.339411 0.000000 0.000000
0.339411 0.000000 0.014142
0.339411 0.000000 0.028284
0.339411 0.000000 0.042426
0.339411 0.000000 0.056569
0.339411 0.000000 0.070711
0.339411 0.000000 0.084853
0.339411 0.000000 0.098995
0.339411 0.000000 0.113137
0.339411 0.000000 0.127279
0.339411 0.000000 0.141421
0.339411 0.000000 0.155563
0.339411 0.000000 0.169706
0.339411 0.000000 0.183848
0.339411 0.000000 0.197990
0.339411 0.000000 0.212132
0.339411 0.000000 0.226274
0.339411 0.000000 0.240416
0.339411 0.000000 0.254558
0.339411 0.000000 0.268701
0.339411 0.000000 0.282843
0.339411 0.000000 0.296985
0.339411 0.000000 0.311127
0.339411 0.000000 0.325269
0.339411 0.000000 0.339411
0.339411 0.000000 0.353553
0.339411 0.000000 0.367696
0.339411 0.000000 0.381838
0.339411 0.000000 0.395980
0.339411 0.000000 0.410122
0.339411 0.000000 0.424264
0.339411 0.000000 0.438406
0.339411 0.000000 0.452548
0.339411 0.000000 0.466690
0.339411 0.000000 0.480833
0.339411 0.000000 0.494975
0.339411 0.000000 0.509117
0.339411 0.000000 0.523259
0.339411 0.000000 0.537401
0.339411 0.000000 0.551543
0.339411 0.000000 0.565685
0.339411 0.000000 0.579828
0.339411 0.000000 0.593970
0.339411 0.000000 0.608112
0.339411 0.000000 0.622254
0.339411 0.000000 0.636396
0.339411 0.000000 0.650538
0.339411 0.000000 0.664680
0.339411 0.000000 0.678823
0.339411 0.000000 0.692965
0.339411 0.000000 0.707107
0.339411 0.000000 0.721249
0.339411 0.000000 0.735391
0.339411 0.000000 0.749533
0.339411 0.000000 0.763675
0.339411 0.000000 0.777817
0.339411 0.000000 0.791960
0.339411 0.000000 0.806102
0.339411 0.000000 0.820244
0.339411 0.000000 0.834386
0.339411 0.000000 0.848528
0.339411 0.000000 0.862670
0.339411 0.000000 0.876812
0.339411 0.000000 0.890955
0.339411 0.000000 0.905097
0.339411 0.000000 0.919239
0.339411 0.000000 0.933381
0.339411 0.000000 0.947523
0.339411 0.000000 0.961665
0.339411 0.000000 0.975807
0.339411 0.000000 0.989949
0.353553 0.000000 0.000000
0.353553 0.000000 0.014142
0.353553 0.000000 0.028284
0.353553 0.000000 0.042426
0.353553 0.000000 0.056569
0.353553 0.000000 0.070711
0.353553 0.000000 0.084853
0.353553 0.000000 0.098995
0.353553 0.000000 0.113137
0.353553 0.000000 0.127279
0.353553 0.000000 0.141421
0.353553 0.000000 0.155563
0.353553 0.000000 0.169706
0.353553 0.000000 0.183848
0.353553 0.000000 0.197990
0.353553 0.000000 0.212132
0.353553 0.000000 0.226274
0.353553 0.000000 0.240416
0.353553 0.000000 0.254558
0.353553 0.000000 0.268701
0.353553 0.000000 0.282843
0.353553 0.000000 0.296985
0.353553 0.000000 0.311127
0.353553 0.000000 0.325269
0.353553 0.000000 0.339411
0.353553 0.000000 0.353553
0.353553 0.000000 0.367696
0.353553 0.000000 0.381838
0.353553 0.000000 0.395980
0.353553 0.000000 0.410122
0.353553 0.000000 0.424264
0.353553 0.000000 0.438406
0.353553 0.000000 0.452548
0.353553 0.000000 0.466690
0.353553 0.000000 0.480833
0.353553 0.000000 0.494975
0.353553 0.000000 0.509117
0.353553 0.000000 0.523259
0.353553 0.000000 0.537401
0.353553 0.000000 0.551543
0.353553 0.000000 0.565685
0.353553 0.000000 0.579828
0.353553 0.000000 0.593970
0.353553 0.000000 0.608112
0.353553 0.000000 0.622254
0.353553 0.000000 0.636396
0.353553 0.000000 0.650538
0.353553 0.000000 0.664680
0.353553 0.000000 0.678823
0.353553 0.000000 0.692965
0.353553 0.000000 0.707107
0.353553 0.000000 0.721249
0.353553 0.000000 0.735391
0.353553 0.000000 0.749533
0.353553 0.000000 0.763675
0.353553 0.000000 0.777817
0.353553 0.000000 0.791960
0.353553 0.000000 0.806102
0.353553 0.000000 0.820244
0.353553 0.000000 0.834386
0.353553 0.000000 0.848528
0.353553 0.000000 0.862670
0.353553 0.000000 0.876812
0.353553 0.000000 0.890955
0.353553 0.000000 0.905097
0.353553 0.000000 0.919239
0.353553 0.000000 0.933381
0.353553 0.000000 0.947523
0.353553 0.000000 0.961665
0.353553 0.000000 0.975807
0.353553 0.000000 0.989949
0.367696 0.000000 0.000000
0.367696 0.000000 0.014142
0.367696 0.000000 0.028284
0.367696 0.000000 0.042426
0.367696 0.000000 0.056569
0.367696 0.000000 0.070711
0.367696 0.000000 0.084853
0.367696 0.000000 0.098995
0.367696 0.000000 0.113137
0.367696 0.000000 0.127279
0.367696 0.000000 0.141421
0.367696 0.000000 0.155563
0.367696 0.000000 0.169706
0.367696 0.000000 0.183848
0.367696 0.000000 0.197990
0.367696 0.000000 0.212132
0.367696 0.000000 0.226274
0.367696 0.000000 0.240416
0.367696 0.000000 0.254558
0.367696 0.000000 0.268701
0.367696 0.000000 0.282843
0.367696 0.000000 0.296985
0.367696 0.000000 0.311127
0.367696 0.000000 0.325269
0.367696 0.000000 0.339411
0.367696 0.000000 0.353553
0.367696 0.000000 0.367696
0.367696 0.000000 0.381838
0.367696 0.000000 0.395980
0.367696 0.000000 0.410122
0.367696 0.000000 0.424264
0.367696 0.000000 0.438406
0.367696 0.000000 0.452548
0.367696 0.000000 0.466690
0.367696 0.000000 0.480833
0.367696 0.000000 0.494975
0.367696 0.000000 0.509117
0.367696 0.000000 0.523259
0.367696 0.000000 0.537401
0.367696 0.000000 0.551543
0.367696 0.000000 0.565685
0.367696 0.000000 0.579828
0.367696 0.000000 0.593970
0.367696 0.000000 0.608112
0.367696 0.000000 0.622254
0.367696 0.000000 0.636396
0.367696 0.000000 0.650538
0.367696 0.000000 0.664680
0.367696 0.000000 0.678823
0.367696 0.000000 0.692965
0.367696 0.000000 0.707107
0.367696 0.000000 0.721249
0.367696 0.000000 0.735391
0.367696 0.000000 0.749533
0.367696 0.000000 0.763675
0.367696 0.000000 0.777817
0.367696 0.000000 0.791960
0.367696 0.000000 0.806102
0.367696 0.000000 0.820244
0.367696 0.000000 0.834386
0.367696 0.000000 0.848528
0.367696 0.000000 0.862670
0.367696 0.000000 0.876812
0.367696 0.000000 0.890955
0.367696 0.000000 0.905097
0.367696 0.000000 0.919239
0.367696 0.000000 0.933381
0.367696 0.000000 0.947523
0.367696 0.000000 0.961665
0.367696 0.000000 0.975807
0.367696 0.000000 0.989949
0.381838 0.000000 0.000000
0.381838 0.000000 0.014142
0.381838 0.000000 0.028284
0.381838 0.000000 0.042426
0.381838 0.000000 0.056569
0.381838 0.000000 0.070711
0.381838 0.000000 0.084853
0.381838 0.000000 0.098995
0.381838 0.000000 0.113137
0.381838 0.000000 0.127279
0.381838 0.000000 0.141421
0.381838 0.000000 0.155563
0.381838 0.000000 0.169706
0.381838 0.000000 0.183848
0.381838 0.000000 0.197990
0.381838 0.000000 0.212132
0.381838 0.000000 0.226274
0.381838 0.000000 0.240416
0.381838 0.000000 0.254558
0.381838 0.000000 0.268701
0.381838 0.000000 0.282843
0.381838 0.000000 0.296985
0.381838 0.000000 0.311127
0.381838 0.000000 0.325269
0.381838 0.000000 0.339411
0.381838 0.000000 0.353553
0.381838 0.000000 0.367696
0.381838 0.000000 0.381838
0.381838 0.000000 0.395980
0.381838 0.000000 0.410122
0.381838 0.000000 0.424264
0.381838 0.000000 0.438406
0.381838 0.000000 0.452548
0.381838 0.000000 0.466690
0.381838 0.000000 0.480833
0.381838 0.000000 0.494975
0.381838 0.000000 0.509117
0.381838 0.000000 0.523259
0.381838 0.000000 0.537401
0.381838 0.000000 0.551543
0.381838 0.000000 0.565685
0.381838 0.000000 0.579828
0.381838 0.000000 0.593970
0.381838 0.000000 0.608112
0.381838 0.000000 0.622254
0.381838 0.000000 0.636396
0.381838 0.000000 0.650538
0.381838 0.000000 0.664680
0.381838 0.000000 0.678823
0.381838 0.000000 0.692965
0.381838 0.000000 0.707107
0.381838 0.000000 0.721249
0.381838 0.000000 0.735391
0.381838 0.000000 0.749533
0.381838 0.000000 0.763675
0.381838 0.000000 0.777817
0.381838 0.000000 0.791960
0.381838 0.000000 0.806102
0.381838 0.000000 0.820244
0.381838 0.000000 0.834386
0.381838 0.000000 0.848528
0.381838 0.000000 0.862670
0.381838 0.000000 0.876812
0.381838 0.000000 0.890955
0.381838 0.000000 0.905097
0.381838 0.000000 0.919239
0.381838 0.000000 0.933381
0.381838 0.000000 0.947523
0.381838 0.000000 0.961665
0.381838 0.000000 0.975807
0.381838 0.000000 0.989949
0.395980 0.000000 0.000000
0.395980 0.000000 0.014142
0.395980 0.000000 0.028284
0.395980 0.000000 0.042426
0.395980 0.000000 0.056569
0.395980 0.000000 0.070711
0.395980 0.000000 0.084853
0.395980 0.000000 0.098995
0.395980 0.000000 0.113137
0.395980 0.000000 0.127279
0.395980 0.000000 0.141421
0.395980 0.000000 0.155563
0.395980 0.000000 0.169706
0.395980 0.000000 0.183848
0.395980 0.000000 0.197990
0.395980 0.000000 0.212132
0.395980 0.000000 0.226274
0.395980 0.000000 0.240416
0.395980 0.000000 0.254558
0.395980 0.000000 0.268701
0.395980 0.000000 0.282843
0.395980 0.000000 0.296985
0.395980 0.000000 0.311127
0.395980 0.000000 0.325269
0.395980 0.000000 0.339411
0.395980 0.000000 0.353553
0.395980 0.000000 0.367696
0.395980 0.000000 0.381838
0.395980 0.000000 0.395980
0.395980 0.000000 0.410122
0.395980 0.000000 0.424264
0.395980 0.000000 0.438406
0.395980 0.000000 0.452548
0.395980 0.000000 0.466690
0.395980 0.000000 0.480833
0.395980 0.000000 0.494975
0.395980 0.000000 0.509117
0.395980 0.000000 0.523259
0.395980 0.000000 0.537401
0.395980 0.000000 0.551543
0.395980 0.000000 0.565685
0.395980 0.000000 0.579828
0.395980 0.000000 0.593970
0.395980 0.000000 0.608112
0.395980 0.000000 0.622254
0.395980 0.000000 0.636396
0.395980 0.000000 0.650538
0.395980 0.000000 0.664680
0.395980 0.000000 0.678823
0.395980 0.000000 0.692965
0.395980 0.000000 0.707107
0.395980 0.000000 0.721249
0.395980 0.000000 0.735391
0.395980 0.000000 0.749533
0.395980 0.000000 0.763675
0.395980 0.000000 0.777817
0.395980 0.000000 0.791960
0.395980 0.000000 0.806102
0.395980 0.000000 0.820244
0.395980 0.000000 0.834386
0.395980 0.000000 0.848528
0.395980 0.000000 0.862670
0.395980 0.000000 0.876812
0.395980 0.000000 0.890955
0.395980 0.000000 0.905097
0.395980 0.000000 0.919239
0.395980 0.000000 0.933381
0.395980 0.000000 0.947523
0.395980 0.000000 0.961665
0.395980 0.000000 0.975807
0.395980 0.000000 0.989949
0.410122 0.000000 0.000000
0.410122 0.000000 0.014142
0.410122 0.000000 0.028284
0.410122 0.000000 0.042426
0.410122 0.000000 0.056569
0.410122 0.000000 0.070711
0.410122 0.000000 0.084853
0.410122 0.000000 0.098995
0.410122 0.000000 0.113137
0.410122 0.000000 0.127279
0.410122 0.000000 0.141421
0.410122 0.000000 0.155563
0.410122 0.000000 0.169706
0.410122 0.000000 0.183848
0.410122 0.000000 0.197990
0.410122 0.000000 0.212132
0.410122 0.000000 0.226274
0.410122 0.000000 0.240416
0.410122 0.000000 0.254558
0.410122 0.000000 0.268701
0.410122 0.000000 0.282843
0.410122 0.000000 0.296985
0.410122 0.000000 0.311127
0.410122 0.000000 0.325269
0.410122 0.000000 0.339411
0.410122 0.000000 0.353553
0.410122 0.000000 0.367696
0.410122 0.000000 0.381838
0.410122 0.000000 0.395980
0.410122 0.000000 0.410122
0.410122 0.000000 0.424264
0.410122 0.000000 0.438406
0.410122 0.000000 0.452548
0.410122 0.000000 0.466690
0.410122 0.000000 0.480833
0.410122 0.000000 0.494975
0.410122 0.000000 0.509117
0.410122 0.000000 0.523259
0.410122 0.000000 0.537401
0.410122 0.000000 0.551543
0.410122 0.000000 0.565685
0.410122 0.000000 0.579828
0.410122 0.000000 0.593970
0.410122 0.000000 0.608112
0.410122 0.000000 0.622254
0.410122 0.000000 0.636396
0.410122 0.000000 0.650538
0.410122 0.000000 0.664680
0.410122 0.000000 0.678823
0.410122 0.000000 0.692965
0.410122 0.000000 0.707107
0.410122 0.000000 0.721249
0.410122 0.000000 0.735391
0.410122 0.000000 0.749533
0.410122 0.000000 0.763675
0.410122 0.000000 0.777817
0.410122 0.000000 0.791960
0.410122 0.000000 0.806102
0.410122 0.000000 0.820244
0.410122 0.000000 0.834386
0.410122 0.000000 0.848528
0.410122 0.000000 0.862670
0.410122 0.000000 0.876812
0.410122 0.000000 0.890955
0.410122 0.000000 0.905097
0.410122 0.000000 0.919239
0.410122 0.000000 0.933381
0.410122 0.000000 0.947523
0.410122 0.000000 0.961665
0.410122 0.000000 0.975807
0.410122 0.000000 0.989949
0.424264 0.000000 0.000000
0.424264 0.000000 0.014142
0.424264 0.000000 0.028284
0.424264 0.000000 0.042426
0.424264 0.000000 0.056569
0.424264 0.000000 0.070711
0.424264 0.000000 0.084853
0.424264 0.000000 0.098995
0.424264 0.000000 0.113137
0.424264 0.000000 0.127279
0.424264 0.000000 0.141421
0.424264 0.000000 0.155563
0.424264 0.000000 0.169706
0.424264 0.000000 0.183848
0.424264 0.000000 0.197990
0.424264 0.000000 0.212132
0.424264 0.000000 0.226274
0.424264 0.000000 0.240416
0.424264 0.000000 0.254558
0.424264 0.000000 0.268701
0.424264 0.000000 0.282843
0.424264 0.000000 0.296985
0.424264 0.000000 0.311127
0.424264 0.000000 0.325269
0.424264 0.000000 0.339411
0.424264 0.000000 0.353553
0.424264 0.000000 0.367696
0.424264 0.000000 0.381838
0.424264 0.000000 0.395980
0.424264 0.000000 0.410122
0.424264 0.000000 0.424264
0.424264 0.000000 0.438406
0.424264 0.000000 0.452548
0.424264 0.000000 0.466690
0.424264 0.000000 0.480833
0.424264 0.000000 0.494975
0.424264 0.000000 0.509117
0.424264 0.000000 0.523259
0.424264 0.000000 0.537401
0.424264 0.000000 0.551543
0.424264 0.000000 0.565685
0.424264 0.000000 0.579828
0.424264 0.000000 0.593970
0.424264 0.000000 0.608112
0.424264 0.000000 0.622254
0.424264 0.000000 0.636396
0.424264 0.000000 0.650538
0.424264 0.000000 0.664680
0.424264 0.000000 0.678823
0.424264 0.000000 0.692965
0.424264 0.000000 0.707107
0.424264 0.000000 0.721249
0.424264 0.000000 0.735391
0.424264 0.000000 0.749533
0.424264 0.000000 0.763675
0.424264 0.000000 0.777817
0.424264 0.000000 0.791960
0.424264 0.000000 0.806102
0.424264 0.000000 0.820244
0.424264 0.000000 0.834386
0.424264 0.000000 0.848528
0.424264 0.000000 0.862670
0.424264 0.000000 0.876812
0.424264 0.000000 0.890955
0.424264 0.000000 0.905097
0.424264 0.000000 0.919239
0.424264 0.000000 0.933381
0.424264 0.000000 0.947523
0.424264 0.000000 0.961665
0.424264 0.000000 0.975807
0.424264 0.000000 0.989949
0.438406 0.000000 0.000000
0.438406 0.000000 0.014142
0.438406 0.000000 0.028284
0.438406 0.000000 0.042426
0.438406 0.000000 0.056569
0.438406 0.000000 0.070711
0.438406 0.000000 0.084853
0.438406 0.000000 0.098995
0.438406 0.000000 0.113137
0.438406 0.000000 0.127279
0.438406 0.000000 0.141421
0.438406 0.000000 0.155563
0.438406 0.000000 0.169706
0.438406 0.000000 0.183848
0.438406 0.000000 0.197990
0.438406 0.000000 0.212132
0.438406 0.000000 0.226274
0.438406 0.000000 0.240416
0.438406 0.000000 0.254558
0.438406 0.000000 0.268701
0.438406 0.000000 0.282843
0.438406 0.000000 0.296985
0.438406 0.000000 0.311127
0.438406 0.000000 0.325269
0.438406 0.000000 0.339411
0.438406 0.000000 0.353553
0.438406 0.000000 0.367696
0.438406 0.000000 0.381838
0.438406 0.000000 0.395980
0.438406 0.000000 0.410122
0.438406 0.000000 0.424264
0.438406 0.000000 0.438406
0.438406 0.000000 0.452548
0.438406 0.000000 0.466690
0.438406 0.000000 0.480833
0.438406 0.000000 0.494975
0.438406 0.000000 0.509117
0.438406 0.000000 0.523259
0.438406 0.000000 0.537401
0.438406 0.000000 0.551543
0.438406 0.000000 0.565685
0.438406 0.000000 0.579828
0.438406 0.000000 0.593970
0.438406 0.000000 0.608112
0.438406 0.000000 0.622254
0.438406 0.000000 0.636396
0.438406 0.000000 0.650538
0.438406 0.000000 0.664680
0.438406 0.000000 0.678823
0.438406 0.000000 0.692965
0.438406 0.000000 0.707107
0.438406 0.000000 0.721249
0.438406 0.000000 0.735391
0.438406 0.000000 0.749533
0.438406 0.000000 0.763675
0.438406 0.000000 0.777817
0.438406 0.000000 0.791960
0.438406 0.000000 0.806102
0.438406 0.000000 0.820244
0.438406 0.000000 0.834386
0.438406 0.000000 0.848528
0.438406 0.000000 0.862670
0.438406 0.000000 0.876812
0.438406 0.000000 0.890955
0.438406 0.000000 0.905097
0.438406 0.000000 0.919239
0.438406 0.000000 0.933381
0.438406 0.000000 0.947523
0.438406 0.000000 0.961665
0.438406 0.000000 0.975807
0.438406 0.000000 0.989949
0.452548 0.000000 0.000000
0.452548 0.000000 0.014142
0.452548 0.000000 0.028284
0.452548 0.000000 0.042426
0.452548 0.000000 0.056569
0.452548 0.000000 0.070711
0.452548 0.000000 0.084853
0.452548 0.000000 0.098995
0.452548 0.000000 0.113137
0.452548 0.000000 0.127279
0.452548 0.000000 0.141421
0.452548 0.000000 0.155563
0.452548 0.000000 0.169706
0.452548 0.000000 0.183848
0.452548 0.000000 0.197990
0.452548 0.000000 0.212132
0.452548 0.000000 0.226274
0.452548 0.000000 0.240416
0.452548 0.000000 0.254558
0.452548 0.000000 0.268701
0.452548 0.000000 0.282843
0.452548 0.000000 0.296985
0.452548 0.000000 0.311127
0.452548 0.000000 0.325269
0.452548 0.000000 0.339411
0.452548 0.000000 0.353553
0.452548 0.000000 0.367696
0.452548 0.000000 0.381838
0.452548 0.000000 0.395980
0.452548 0.000000 0.410122
0.452548 0.000000 0.424264
0.452548 0.000000 0.438406
0.452548 0.000000 0.452548
0.452548 0.000000 0.466690
0.452548 0.000000 0.480833
0.452548 0.000000 0.494975
0.452548 0.000000 0.509117
0.452548 0.000000 0.523259
0.452548 0.000000 0.537401
0.452548 0.000000 0.551543
0.452548 0.000000 0.565685
0.452548 0.000000 0.579828
0.452548 0.000000 0.593970
0.452548 0.000000 0.608112
0.452548 0.000000 0.622254
0.452548 0.000000 0.636396
0.452548 0.000000 0.650538
0.452548 0.000000 0.664680
0.452548 0.000000 0.678823
0.452548 0.000000 0.692965
0.452548 0.000000 0.707107
0.452548 0.000000 0.721249
0.452548 0.000000 0.735391
0.452548 0.000000 0.749533
0.452548 0.000000 0.763675
0.452548 0.000000 0.777817
0.452548 0.000000 0.791960
0.452548 0.000000 0.806102
0.452548 0.000000 0.820244
0.452548 0.000000 0.834386
0.452548 0.000000 0.848528
0.452548 0.000000 0.862670
0.452548 0.000000 0.876812
0.452548 0.000000 0.890955
0.452548 0.000000 0.905097
0.452548 0.000000 0.919239
0.452548 0.000000 0.933381
0.452548 0.000000 0.947523
0.452548 0.000000 0.961665
0.452548 0.000000 0.975807
0.452548 0.000000 0.989949
0.466690 0.000000 0.000000
0.466690 0.000000 0.014142
0.466690 0.000000 0.028284
0.466690 0.000000 0.042426
0.466690 0.000000 0.056569
0.466690 0.000000 0.070711
0.466690 0.000000 0.084853
0.466690 0.000000 0.098995
0.466690 0.000000 0.113137
0.466690 0.000000 0.127279
0.466690 0.000000 0.141421
0.466690 0.000000 0.155563
0.466690 0.000000 0.169706
0.466690 0.000000 0.183848
0.466690 0.000000 0.197990
0.466690 0.000000 0.212132
0.466690 0.000000 0.226274
0.466690 0.000000 0.240416
0.466690 0.000000 0.254558
0.466690 0.000000 0.268701
0.466690 0.000000 0.282843
0.466690 0.000000 0.296985
0.466690 0.000000 0.311127
0.466690 0.000000 0.325269
0.466690 0.000000 0.339411
0.466690 0.000000 0.353553
0.466690 0.000000 0.367696
0.466690 0.000000 0.381838
0.466690 0.000000 0.395980
0.466690 0.000000 0.410122
0.466690 0.000000 0.424264
0.466690 0.000000 0.438406
0.466690 0.000000 0.452548
0.466690 0.000000 0.466690
0.466690 0.000000 0.480833
0.466690 0.000000 0.494975
0.466690 0.000000 0.509117
0.466690 0.000000 0.523259
0.466690 0.000000 0.537401
0.466690 0.000000 0.551543
0.466690 0.000000 0.565685
0.466690 0.000000 0.579828
0.466690 0.000000 0.593970
0.466690 0.000000 0.608112
0.466690 0.000000 0.622254
0.466690 0.000000 0.636396
0.466690 0.000000 0.650538
0.466690 0.000000 0.664680
0.466690 0.000000 0.678823
0.466690 0.000000 0.692965
0.466690 0.000000 0.707107
0.466690 0.000000 0.721249
0.466690 0.000000 0.735391
0.466690 0.000000 0.749533
0.466690 0.000000 0.763675
0.466690 0.000000 0.777817
0.466690 0.000000 0.791960
0.466690 0.000000 0.806102
0.466690 0.000000 0.820244
0.466690 0.000000 0.834386
0.466690 0.000000 0.848528
0.466690 0.000000 0.862670
0.466690 0.000000 0.876812
0.466690 0.000000 0.890955
0.466690 0.000000 0.905097
0.466690 0.000000 0.919239
0.466690 0.000000 0.933381
0.466690 0.000000 0.947523
0.466690 0.000000 0.961665
0.466690 0.000000 0.975807
0.466690 0.000000 0.989949
0.480833 0.000000 0.000000
0.480833 0.000000 0.014142
0.480833 0.000000 0.028284
0.480833 0.000000 0.042426
0.480833 0.000000 0.056569
0.480833 0.000000 0.070711
0.480833 0.000000 0.084853
0.480833 0.000000 0.098995
0.480833 0.000000 0.113137
0.480833 0.000000 0.127279
0.480833 0.000000 0.141421
0.480833 0.000000 0.155563
0.480833 0.000000 0.169706
0.480833 0.000000 0.183848
0.480833 0.000000 0.197990
0.480833 0.000000 0.212132
0.480833 0.000000 0.226274
0.480833 0.000000 0.240416
0.480833 0.000000 0.254558
0.480833 0.000000 0.268701
0.480833 0.000000 0.282843
0.480833 0.000000 0.296985
0.480833 0.000000 0.311127
0.480833 0.000000 0.325269
0.480833 0.000000 0.339411
0.480833 0.000000 0.353553
0.480833 0.000000 0.367696
0.480833 0.000000 0.381838
0.480833 0.000000 0.395980
0.480833 0.000000 0.410122
0.480833 0.000000 0.424264
0.480833 0.000000 0.438406
0.480833 0.000000 0.452548
0.480833 0.000000 0.466690
0.480833 0.000000 0.480833
0.480833 0.000000 0.494975
0.480833 0.000000 0.509117
0.480833 0.000000 0.523259
0.480833 0.000000 0.537401
0.480833 0.000000 0.551543
0.480833 0.000000 0.565685
0.480833 0.000000 0.579828
0.480833 0.000000 0.593970
0.480833 0.000000 0.608112
0.480833 0.000000 0.622254
0.480833 0.000000 0.636396
0.480833 0.000000 0.650538
0.480833 0.000000 0.664680
0.480833 0.000000 0.678823
0.480833 0.000000 0.692965
0.480833 0.000000 0.707107
0.480833 0.000000 0.721249
0.480833 0.000000 0.735391
0.480833 0.000000 0.749533
0.480833 0.000000 0.763675
0.480833 0.000000 0.777817
0.480833 0.000000 0.791960
0.480833 0.000000 0.806102
0.480833 0.000000 0.820244
0.480833 0.000000 0.834386
0.480833 0.000000 0.848528
0.480833 0.000000 0.862670
0.480833 0.000000 0.876812
0.480833 0.000000 0.890955
0.480833 0.000000 0.905097
0.480833 0.000000 0.919239
0.480833 0.000000 0.933381
0.480833 0.000000 0.947523
0.480833 0.000000 0.961665
0.480833 0.000000 0.975807
0.480833 0.000000 0.989949
0.494975 0.000000 0.000000
0.494975 0.000000 0.014142
0.494975 0.000000 0.028284
0.494975 0.000000 0.042426
0.494975 0.000000 0.056569
0.494975 0.000000 0.070711
0.494975 0.000000 0.084853
0.494975 0.000000 0.098995
0.494975 0.000000 0.113137
0.494975 0.000000 0.127279
0.494975 0.000000 0.141421
0.494975 0.000000 0.155563
0.494975 0.000000 0.169706
0.494975 0.000000 0.183848
0.494975 0.000000 0.197990
0.494975 0.000000 0.212132
0.494975 0.000000 0.226274
0.494975 0.000000 0.240416
0.494975 0.000000 0.254558
0.494975 0.000000 0.268701
0.494975 0.000000 0.282843
0.494975 0.000000 0.296985
0.494975 0.000000 0.311127
0.494975 0.000000 0.325269
0.494975 0.000000 0.339411
0.494975 0.000000 0.353553
0.494975 0.000000 0.367696
0.494975 0.000000 0.381838
0.494975 0.000000 0.395980
0.494975 0.000000 0.410122
0.494975 0.000000 0.424264
0.494975 0.000000 0.438406
0.494975 0.000000 0.452548
0.494975 0.000000 0.466690
0.494975 0.000000 0.480833
0.494975 0.000000 0.494975
0.494975 0.000000 0.509117
0.494975 0.000000 0.523259
0.494975 0.000000 0.537401
0.494975 0.000000 0.551543
0.494975 0.000000 0.565685
0.494975 0.000000 0.579828
0.494975 0.000000 0.593970
0.494975 0.000000 0.608112
0.494975 0.000000 0.622254
0.494975 0.000000 0.636396
0.494975 0.000000 0.650538
0.494975 0.000000 0.664680
0.494975 0.000000 0.678823
0.494975 0.000000 0.692965
0.494975 0.000000 0.707107
0.494975 0.000000 0.721249
0.494975 0.000000 0.735391
0.494975 0.000000 0.749533
0.494975 0.000000 0.763675
0.494975 0.000000 0.777817
0.494975 0.000000 0.791960
0.494975 0.000000 0.806102
0.494975 0.000000 0.820244
0.494975 0.000000 0.834386
0.494975 0.000000 0.848528
0.494975 0.000000 0.862670
0.494975 0.000000 0.876812
0.494975 0.000000 0.890955
0.494975 0.000000 0.905097
0.494975 0.000000 0.919239
0.494975 0.000000 0.933381
0.494975 0.000000 0.947523
0.494975 0.000000 0.961665
0.494975 0.000000 0.975807
0.494975 0.000000 0.989949
0.509117 0.000000 0.000000
0.509117 0.000000 0.014142
0.509117 0.000000 0.028284
0.509117 0.000000 0.042426
0.509117 0.000000 0.056569
0.509117 0.000000 0.070711
0.509117 0.000000 0.084853
0.509117 0.000000 0.098995
0.509117 0.000000 0.113137
0.509117 0.000000 0.127279
0.509117 0.000000 0.141421
0.509117 0.000000 0.155563
0.509117 0.000000 0.169706
0.509117 0.000000 0.183848
0.509117 0.000000 0.197990
0.509117 0.000000 0.212132
0.509117 0.000000 0.226274
0.509117 0.000000 0.240416
0.509117 0.000000 0.254558
0.509117 0.000000 0.268701
0.509117 0.000000 0.282843
0.509117 0.000000 0.296985
0.509117 0.000000 0.311127
0.509117 0.000000 0.325269
0.509117 0.000000 0.339411
0.509117 0.000000 0.353553
0.509117 0.000000 0.367696
0.509117 0.000000 0.381838
0.509117 0.000000 0.395980
0.509117 0.000000 0.410122
0.509117 0.000000 0.424264
0.509117 0.000000 0.438406
0.509117 0.000000 0.452548
0.509117 0.000000 0.466690
0.509117 0.000000 0.480833
0.509117 0.000000 0.494975
0.509117 0.000000 0.509117
0.509117 0.000000 0.523259
0.509117 0.000000 0.537401
0.509117 0.000000 0.551543
0.509117 0.000000 0.565685
0.509117 0.000000 0.579828
0.509117 0.000000 0.593970
0.509117 0.000000 0.608112
0.509117 0.000000 0.622254
0.509117 0.000000 0.636396
0.509117 0.000000 0.650538
0.509117 0.000000 0.664680
0.509117 0.000000 0.678823
0.509117 0.000000 0.692965
0.509117 0.000000 0.707107
0.509117 0.000000 0.721249
0.509117 0.000000 0.735391
0.509117 0.000000 0.749533
0.509117 0.000000 0.763675
0.509117 0.000000 0.777817
0.509117 0.000000 0.791960
0.509117 0.000000 0.806102
0.509117 0.000000 0.820244
0.509117 0.000000 0.834386
0.509117 0.000000 0.848528
0.509117 0.000000 0.862670
0.509117 0.000000 0.876812
0.509117 0.000000 0.890955
0.509117 0.000000 0.905097
0.509117 0.000000 0.919239
0.509117 0.000000 0.933381
0.509117 0.000000 0.947523
0.509117 0.000000 0.961665
0.509117 0.000000 0.975807
0.509117 0.000000 0.989949
0.523259 0.000000 0.000000
0.523259 0.000000 0.014142
0.523259 0.000000 0.028284
0.523259 0.000000 0.042426
0.523259 0.000000 0.056569
0.523259 0.000000 0.070711
0.523259 0.000000 0.084853
0.523259 0.000000 0.098995
0.523259 0.000000 0.113137
0.523259 0.000000 0.127279
0.523259 0.000000 0.141421
0.523259 0.000000 0.155563
0.523259 0.000000 0.169706
0.523259 0.000000 0.183848
0.523259 0.000000 0.197990
0.523259 0.000000 0.212132
0.523259 0.000000 0.226274
0.523259 0.000000 0.240416
0.523259 0.000000 0.254558
0.523259 0.000000 0.268701
0.523259 0.000000 0.282843
0.523259 0.000000 0.296985
0.523259 0.000000 0.311127
0.523259 0.000000 0.325269
0.523259 0.000000 0.339411
0.523259 0.000000 0.353553
0.523259 0.000000 0.367696
0.523259 0.000000 0.381838
0.523259 0.000000 0.395980
0.523259 0.000000 0.410122
0.523259 0.000000 0.424264
0.523259 0.000000 0.438406
0.523259 0.000000 0.452548
0.523259 0.000000 0.466690
0.523259 0.000000 0.480833
0.523259 0.000000 0.494975
0.523259 0.000000 0.509117
0.523259 0.000000 0.523259
0.523259 0.000000 0.537401
0.523259 0.000000 0.551543
0.523259 0.000000 0.565685
0.523259 0.000000 0.579828
0.523259 0.000000 0.593970
0.523259 0.000000 0.608112
0.523259 0.000000 0.622254
0.523259 0.000000 0.636396
0.523259 0.000000 0.650538
0.523259 0.000000 0.664680
0.523259 0.000000 0.678823
0.523259 0.000000 0.692965
0.523259 0.000000 0.707107
0.523259 0.000000 0.721249
0.523259 0.000000 0.735391
0.523259 0.000000 0.749533
0.523259 0.000000 0.763675
0.523259 0.000000 0.777817
0.523259 0.000000 0.791960
0.523259 0.000000 0.806102
0.523259 0.000000 0.820244
0.523259 0.000000 0.834386
0.523259 0.000000 0.848528
0.523259 0.000000 0.862670
0.523259 0.000000 0.876812
0.523259 0.000000 0.890955
0.523259 0.000000 0.905097
0.523259 0.000000 0.919239
0.523259 0.000000 0.933381
0.523259 0.000000 0.947523
0.523259 0.000000 0.961665
0.523259 0.000000 0.975807
0.523259 0.000000 0.989949
0.537401 0.000000 0.000000
0.537401 0.000000 0.014142
0.537401 0.000000 0.028284
0.537401 0.000000 0.042426
0.537401 0.000000 0.056569
0.537401 0.000000 0.070711
0.537401 0.000000 0.084853
0.537401 0.000000 0.098995
0.537401 0.000000 0.113137
0.537401 0.000000 0.127279
0.537401 0.000000 0.141421
0.537401 0.000000 0.155563
0.537401 0.000000 0.169706
0.537401 0.000000 0.183848
0.537401 0.000000 0.197990
0.537401 0.000000 0.212132
0.537401 0.000000 0.226274
0.537401 0.000000 0.240416
0.537401 0.000000 0.254558
0.537401 0.000000 0.268701
0.537401 0.000000 0.282843
0.537401 0.000000 0.296985
0.537401 0.000000 0.311127
0.537401 0.000000 0.325269
0.537401 0.000000 0.339411
0.537401 0.000000 0.353553
0.537401 0.000000 0.367696
0.537401 0.000000 0.381838
0.537401 0.000000 0.395980
0.537401 0.000000 0.410122
0.537401 0.000000 0.424264
0.537401 0.000000 0.438406
0.537401 0.000000 0.452548
0.537401 0.000000 0.466690
0.537401 0.000000 0.480833
0.537401 0.000000 0.494975
0.537401 0.000000 0.509117
0.537401 0.000000 0.523259
0.537401 0.000000 0.537401
0.537401 0.000000 0.551543
0.537401 0.000000 0.565685
0.537401 0.000000 0.579828
0.537401 0.000000 0.593970
0.537401 0.000000 0.608112
0.537401 0.000000 0.622254
0.537401 0.000000 0.636396
0.537401 0.000000 0.650538
0.537401 0.000000 0.664680
0.537401 0.000000 0.678823
0.537401 0.000000 0.692965
0.537401 0.000000 0.707107
0.537401 0.000000 0.721249
0.537401 0.000000 0.735391
0.537401 0.000000 0.749533
0.537401 0.000000 0.763675
0.537401 0.000000 0.777817
0.537401 0.000000 0.791960
0.537401 0.000000 0.806102
0.537401 0.000000 0.820244
0.537401 0.000000 0.834386
0.537401 0.000000 0.848528
0.537401 0.000000 0.862670
0.537401 0.000000 0.876812
0.537401 0.000000 0.890955
0.537401 0.000000 0.905097
0.537401 0.000000 0.919239
0.537401 0.000000 0.933381
0.537401 0.000000 0.947523
0.537401 0.000000 0.961665
0.537401 0.000000 0.975807
0.537401 0.000000 0.989949
0.551543 0.000000 0.000000
0.551543 0.000000 0.014142
0.551543 0.000000 0.028284
0.551543 0.000000 0.042426
0.551543 0.000000 0.056569
0.551543 0.000000 0.070711
0.551543 0.000000 0.084853
0.551543 0.000000 0.098995
0.551543 0.000000 0.113137
0.551543 0.000000 0.127279
0.551543 0.000000 0.141421
0.551543 0.000000 0.155563
0.551543 0.000000 0.169706
0.551543 0.000000 0.183848
0.551543 0.000000 0.197990
0.551543 0.000000 0.212132
0.551543 0.000000 0.226274
0.551543 0.000000 0.240416
0.551543 0.000000 0.254558
0.551543 0.000000 0.268701
0.551543 0.000000 0.282843
0.551543 0.000000 0.296985
0.551543 0.000000 0.311127
0.551543 0.000000 0.325269
0.551543 0.000000 0.339411
0.551543 0.000000 0.353553
0.551543 0.000000 0.367696
0.551543 0.000000 0.381838
0.551543 0.000000 0.395980
0.551543 0.000000 0.410122
0.551543 0.000000 0.424264
0.551543 0.000000 0.438406
0.551543 0.000000 0.452548
0.551543 0.000000 0.466690
0.551543 0.000000 0.480833
0.551543 0.000000 0.494975
0.551543 0.000000 0.509117
0.551543 0.000000 0.523259
0.551543 0.000000 0.537401
0.551543 0.000000 0.551543
0.551543 0.000000 0.565685
0.551543 0.000000 0.579828
0.551543 0.000000 0.593970
0.551543 0.000000 0.608112
0.551543 0.000000 0.622254
0.551543 0.000000 0.636396
0.551543 0.000000 0.650538
0.551543 0.000000 0.664680
0.551543 0.000000 0.678823
0.551543 0.000000 0.692965
0.551543 0.000000 0.707107
0.551543 0.000000 0.721249
0.551543 0.000000 0.735391
0.551543 0.000000 0.749533
0.551543 0.000000 0.763675
0.551543 0.000000 0.777817
0.551543 0.000000 0.791960
0.551543 0.000000 0.806102
0.551543 0.000000 0.820244
0.551543 0.000000 0.834386
0.551543 0.000000 0.848528
0.551543 0.000000 0.862670
0.551543 0.000000 0.876812
0.551543 0.000000 0.890955
0.551543 0.000000 0.905097
0.551543 0.000000 0.919239
0.551543 0.000000 0.933381
0.551543 0.000000 0.947523
0.551543 0.000000 0.961665
0.551543 0.000000 0.975807
0.551543 0.000000 0.989949
0.565685 0.000000 0.000000
0.565685 0.000000 0.014142
0.565685 0.000000 0.028284
0.565685 0.000000 0.042426
0.565685 0.000000 0.056569
0.565685 0.000000 0.070711
0.565685 0.000000 0.084853
0.565685 0.000000 0.098995
0.565685 0.000000 0.113137
0.565685 0.000000 0.127279
0.565685 0.000000 0.141421
0.565685 0.000000 0.155563
0.565685 0.000000 0.169706
0.565685 0.000000 0.183848
0.565685 0.000000 0.197990
0.565685 0.000000 0.212132
0.565685 0.000000 0.226274
0.565685 0.000000 0.240416
0.565685 0.000000 0.254558
0.565685 0.000000 0.268701
0.565685 0.000000 0.282843
0.565685 0.000000 0.296985
0.565685 0.000000 0.311127
0.565685 0.000000 0.325269
0.565685 0.000000 0.339411
0.565685 0.000000 0.353553
0.565685 0.000000 0.367696
0.565685 0.000000 0.381838
0.565685 0.000000 0.395980
0.565685 0.000000 0.410122
0.565685 0.000000 0.424264
0.565685 0.000000 0.438406
0.565685 0.000000 0.452548
0.565685 0.000000 0.466690
0.565685 0.000000 0.480833
0.565685 0.000000 0.494975
0.565685 0.000000 0.509117
0.565685 0.000000 0.523259
0.565685 0.000000 0.537401
0.565685 0.000000 0.551543
0.565685 0.000000 0.565685
0.565685 0.000000 0.579828
0.565685 0.000000 0.593970
0.565685 0.000000 0.608112
0.565685 0.000000 0.622254
0.565685 0.000000 0.636396
0.565685 0.000000 0.650538
0.565685 0.000000 0.664680
0.565685 0.000000 0.678823
0.565685 0.000000 0.692965
0.565685 0.000000 0.707107
0.565685 0.000000 0.721249
0.565685 0.000000 0.735391
0.565685 0.000000 0.749533
0.565685 0.000000 0.763675
0.565685 0.000000 0.777817
0.565685 0.000000 0.791960
0.565685 0.000000 0.806102
0.565685 0.000000 0.820244
0.565685 0.000000 0.834386
0.565685 0.000000 0.848528
0.565685 0.000000 0.862670
0.565685 0.000000 0.876812
0.565685 0.000000 0.890955
0.565685 0.000000 0.905097
0.565685 0.000000 0.919239
0.565685 0.000000 0.933381
0.565685 0.000000 0.947523
0.565685 0.000000 0.961665
0.565685 0.000000 0.975807
0.565685 0.000000 0.989949
0.579828 0.000000 0.000000
0.579828 0.000000 0.014142
0.579828 0.000000 0.028284
0.579828 0.000000 0.042426
0.579828 0.000000 0.056569
0.579828 0.000000 0.070711
0.579828 0.000000 0.084853
0.579828 0.000000 0.098995
0.579828 0.000000 0.113137
0.579828 0.000000 0.127279
0.579828 0.000000 0.141421
0.579828 0.000000 0.155563
0.579828 0.000000 0.169706
0.579828 0.000000 0.183848
0.579828 0.000000 0.197990
0.579828 0.000000 0.212132
0.579828 0.000000 0.226274
0.579828 0.000000 0.240416
0.579828 0.000000 0.254558
0.579828 0.000000 0.268701
0.579828 0.000000 0.282843
0.579828 0.000000 0.296985
0.579828 0.000000 0.311127
0.579828 0.000000 0.325269
0.579828 0.000000 0.339411
0.579828 0.000000 0.353553
0.579828 0.000000 0.367696
0.579828 0.000000 0.381838
0.579828 0.000000 0.395980
0.579828 0.000000 0.410122
0.579828 0.000000 0.424264
0.579828 0.000000 0.438406
0.579828 0.000000 0.452548
0.579828 0.000000 0.466690
0.579828 0.000000 0.480833
0.579828 0.000000 0.494975
0.579828 0.000000 0.509117
0.579828 0.000000 0.523259
0.579828 0.000000 0.537401
0.579828 0.000000 0.551543
0.579828 0.000000 0.565685
0.579828 0.000000 0.579828
0.579828 0.000000 0.593970
0.579828 0.000000 0.608112
0.579828 0.000000 0.622254
0.579828 0.000000 0.636396
0.579828 0.000000 0.650538
0.579828 0.000000 0.664680
0.579828 0.000000 0.678823
0.579828 0.000000 0.692965
0.579828 0.000000 0.707107
0.579828 0.000000 0.721249
0.579828 0.000000 0.735391
0.579828 0.000000 0.749533
0.579828 0.000000 0.763675
0.579828 0.000000 0.777817
0.579828 0.000000 0.791960
0.579828 0.000000 0.806102
0.579828 0.000000 0.820244
0.579828 0.000000 0.834386
0.579828 0.000000 0.848528
0.579828 0.000000 0.862670
0.579828 0.000000 0.876812
0.579828 0.000000 0.890955
0.579828 0.000000 0.905097
0.579828 0.000000 0.919239
0.579828 0.000000 0.933381
0.579828 0.000000 0.947523
0.579828 0.000000 0.961665
0.579828 0.000000 0.975807
0.579828 0.000000 0.989949
0.593970 0.000000 0.000000
0.593970 0.000000 0.014142
0.593970 0.000000 0.028284
0.593970 0.000000 0.042426
0.593970 0.000000 0.056569
0.593970 0.000000 0.070711
0.593970 0.000000 0.084853
0.593970 0.000000 0.098995
0.593970 0.000000 0.113137
0.593970 0.000000 0.127279
0.593970 0.000000 0.141421
0.593970 0.000000 0.155563
0.593970 0.000000 0.169706
0.593970 0.000000 0.183848
0.593970 0.000000 0.197990
0.593970 0.000000 0.212132
0.593970 0.000000 0.226274
0.593970 0.000000 0.240416
0.593970 0.000000 0.254558
0.593970 0.000000 0.268701
0.593970 0.000000 0.282843
0.593970 0.000000 0.296985
0.593970 0.000000 0.311127
0.593970 0.000000 0.325269
0.593970 0.000000 0.339411
0.593970 0.000000 0.353553
0.593970 0.000000 0.367696
0.593970 0.000000 0.381838
0.593970 0.000000 0.395980
0.593970 0.000000 0.410122
0.593970 0.000000 0.424264
0.593970 0.000000 0.438406
0.593970 0.000000 0.452548
0.593970 0.000000 0.466690
0.593970 0.000000 0.480833
0.593970 0.000000 0.494975
0.593970 0.000000 0.509117
0.593970 0.000000 0.523259
0.593970 0.000000 0.537401
0.593970 0.000000 0.551543
0.593970 0.000000 0.565685
0.593970 0.000000 0.579828
0.593970 0.000000 0.593970
0.593970 0.000000 0.608112
0.593970 0.000000 0.622254
0.593970 0.000000 0.636396
0.593970 0.000000 0.650538
0.593970 0.000000 0.664680
0.593970 0.000000 0.678823
0.593970 0.000000 0.692965
0.593970 0.000000 0.707107
0.593970 0.000000 0.721249
0.593970 0.000000 0.735391
0.593970 0.000000 0.749533
0.593970 0.000000 0.763675
0.593970 0.000000 0.777817
0.593970 0.000000 0.791960
0.593970 0.000000 0.806102
0.593970 0.000000 0.820244
0.593970 0.000000 0.834386
0.593970 0.000000 0.848528
0.593970 0.000000 0.862670
0.593970 0.000000 0.876812
0.593970 0.000000 0.890955
0.593970 0.000000 0.905097
0.593970 0.000000 0.919239
0.593970 0.000000 0.933381
0.593970 0.000000 0.947523
0.593970 0.000000 0.961665
0.593970 0.000000 0.975807
0.593970 0.000000 0.989949
0.608112 0.000000 0.000000
0.608112 0.000000 0.014142
0.608112 0.000000 0.028284
0.608112 0.000000 0.042426
0.608112 0.000000 0.056569
0.608112 0.000000 0.070711
0.608112 0.000000 0.084853
0.608112 0.000000 0.098995
0.608112 0.000000 0.113137
0.608112 0.000000 0.127279
0.608112 0.000000 0.141421
0.608112 0.000000 0.155563
0.608112 0.000000 0.169706
0.608112 0.000000 0.183848
0.608112 0.000000 0.197990
0.608112 0.000000 0.212132
0.608112 0.000000 0.226274
0.608112 0.000000 0.240416
0.608112 0.000000 0.254558
0.608112 0.000000 0.268701
0.608112 0.000000 0.282843
0.608112 0.000000 0.296985
0.608112 0.000000 0.311127
0.608112 0.000000 0.325269
0.608112 0.000000 0.339411
0.608112 0.000000 0.353553
0.608112 0.000000 0.367696
0.608112 0.000000 0.381838
0.608112 0.000000 0.395980
0.608112 0.000000 0.410122
0.608112 0.000000 0.424264
0.608112 0.000000 0.438406
0.608112 0.000000 0.452548
0.608112 0.000000 0.466690
0.608112 0.000000 0.480833
0.608112 0.000000 0.494975
0.608112 0.000000 0.509117
0.608112 0.000000 0.523259
0.608112 0.000000 0.537401
0.608112 0.000000 0.551543
0.608112 0.000000 0.565685
0.608112 0.000000 0.579828
0.608112 0.000000 0.593970
0.608112 0.000000 0.608112
0.608112 0.000000 0.622254
0.608112 0.000000 0.636396
0.608112 0.000000 0.650538
0.608112 0.000000 0.664680
0.608112 0.000000 0.678823
0.608112 0.000000 0.692965
0.608112 0.000000 0.707107
0.608112 0.000000 0.721249
0.608112 0.000000 0.735391
0.608112 0.000000 0.749533
0.608112 0.000000 0.763675
0.608112 0.000000 0.777817
0.608112 0.000000 0.791960
0.608112 0.000000 0.806102
0.608112 0.000000 0.820244
0.608112 0.000000 0.834386
0.608112 0.000000 0.848528
0.608112 0.000000 0.862670
0.608112 0.000000 0.876812
0.608112 0.000000 0.890955
0.608112 0.000000 0.905097
0.608112 0.000000 0.919239
0.608112 0.000000 0.933381
0.608112 0.000000 0.947523
0.608112 0.000000 0.961665
0.608112 0.000000 0.975807
0.608112 0.000000 0.989949
0.622254 0.000000 0.000000
0.622254 0.000000 0.014142
0.622254 0.000000 0.028284
0.622254 0.000000 0.042426
0.622254 0.000000 0.056569
0.622254 0.000000 0.070711
0.622254 0.000000 0.084853
0.622254 0.000000 0.098995
0.622254 0.000000 0.113137
0.622254 0.000000 0.127279
0.622254 0.000000 0.141421
0.622254 0.000000 0.155563
0.622254 0.000000 0.169706
0.622254 0.000000 0.183848
0.622254 0.000000 0.197990
0.622254 0.000000 0.212132
0.622254 0.000000 0.226274
0.622254 0.000000 0.240416
0.622254 0.000000 0.254558
0.622254 0.000000 0.268701
0.622254 0.000000 0.282843
0.622254 0.000000 0.296985
0.622254 0.000000 0.311127
0.622254 0.000000 0.325269
0.622254 0.000000 0.339411
0.622254 0.000000 0.353553
0.622254 0.000000 0.367696
0.622254 0.000000 0.381838
0.622254 0.000000 0.395980
0.622254 0.000000 0.410122
0.622254 0.000000 0.424264
0.622254 0.000000 0.438406
0.622254 0.000000 0.452548
0.622254 0.000000 0.466690
0.622254 0.000000 0.480833
0.622254 0.000000 0.494975
0.622254 0.000000 0.509117
0.622254 0.000000 0.523259
0.622254 0.000000 0.537401
0.622254 0.000000 0.551543
0.622254 0.000000 0.565685
0.622254 0.000000 0.579828
0.622254 0.000000 0.593970
0.622254 0.000000 0.608112
0.622254 0.000000 0.622254
0.622254 0.000000 0.636396
0.622254 0.000000 0.650538
0.622254 0.000000 0.664680
0.622254 0.000000 0.678823
0.622254 0.000000 0.692965
0.622254 0.000000 0.707107
0.622254 0.000000 0.721249
0.622254 0.000000 0.735391
0.622254 0.000000 0.749533
0.622254 0.000000 0.763675
0.622254 0.000000 0.777817
0.622254 0.000000 0.791960
0.622254 0.000000 0.806102
0.622254 0.000000 0.820244
0.622254 0.000000 0.834386
0.622254 0.000000 0.848528
0.622254 0.000000 0.862670
0.622254 0.000000 0.876812
0.622254 0.000000 0.890955
0.622254 0.000000 0.905097
0.622254 0.000000 0.919239
0.622254 0.000000 0.933381
0.622254 0.000000 0.947523
0.622254 0.000000 0.961665
0.622254 0.000000 0.975807
0.622254 0.000000 0.989949
0.636396 0.000000 0.000000
0.636396 0.000000 0.014142
0.636396 0.000000 0.028284
0.636396 0.000000 0.042426
0.636396 0.000000 0.056569
0.636396 0.000000 0.070711
0.636396 0.000000 0.084853
0.636396 0.000000 0.098995
0.636396 0.000000 0.113137
0.636396 0.000000 0.127279
0.636396 0.000000 0.141421
0.636396 0.000000 0.155563
0.636396 0.000000 0.169706
0.636396 0.000000 0.183848
0.636396 0.000000 0.197990
0.636396 0.000000 0.212132
0.636396 0.000000 0.226274
0.636396 0.000000 0.240416
0.636396 0.000000 0.254558
0.636396 0.000000 0.268701
0.636396 0.000000 0.282843
0.636396 0.000000 0.296985
0.636396 0.000000 0.311127
0.636396 0.000000 0.325269
0.636396 0.000000 0.339411
0.636396 0.000000 0.353553
0.636396 0.000000 0.367696
0.636396 0.000000 0.381838
0.636396 0.000000 0.395980
0.636396 0.000000 0.410122
0.636396 0.000000 0.424264
0.636396 0.000000 0.438406
0.636396 0.000000 0.452548
0.636396 0.000000 0.466690
0.636396 0.000000 0.480833
0.636396 0.000000 0.494975
