ply
format ascii 1.0
element vertex 1773
property float x
property float y
property float z
end_header
0.773485 0.122086 0.143689
0.513003 0.122535 0.142788
0.155313 0.123349 0.141271
0.591723 0.123737 0.142382
0.592478 0.133186 0.143384
0.517671 0.130241 0.143571
0.764851 0.132432 0.143447
0.158356 0.135526 0.138765
0.524950 0.142863 0.142884
0.761675 0.138871 0.140985
0.154783 0.143311 0.140398
0.593831 0.143869 0.143238
0.756545 0.143538 0.143108
0.595487 0.153698 0.143052
0.152962 0.151423 0.139954
0.528064 0.150974 0.139927
0.750889 0.153941 0.144426
0.531538 0.154289 0.144871
0.146076 0.154164 0.142858
0.536066 0.163759 0.143327
0.597311 0.164508 0.143742
0.751240 0.160446 0.141093
0.145574 0.163199 0.141734
0.753108 0.165638 0.144459
0.145356 0.172365 0.142120
0.540300 0.172258 0.142742
0.599836 0.173028 0.143987
0.755723 0.173593 0.143195
0.311596 0.174713 0.144147
0.319103 0.174862 0.142860
0.293595 0.175623 0.139947
0.301792 0.175905 0.143821
0.327780 0.175896 0.142011
0.151530 0.180463 0.139517
0.336445 0.176592 0.140699
0.602545 0.180848 0.143481
0.290709 0.178825 0.144342
0.339341 0.179270 0.143609
0.280161 0.182682 0.142963
0.759673 0.180835 0.143356
0.271520 0.184739 0.140322
0.347807 0.184496 0.143248
0.545095 0.181934 0.143732
0.761892 0.184737 0.140377
0.270934 0.190630 0.144003
0.263287 0.192820 0.140779
0.359240 0.192472 0.141828
0.766818 0.191301 0.143642
0.154502 0.194475 0.140398
0.607235 0.193932 0.143814
0.253902 0.202165 0.139910
0.367644 0.202285 0.143635
0.554296 0.201385 0.142950
0.611535 0.201716 0.143746
0.153824 0.202413 0.142990
0.374895 0.206159 0.139803
0.162316 0.212114 0.140712
0.378404 0.212195 0.143768
0.618391 0.213956 0.143588
0.778420 0.208759 0.143335
0.782545 0.215705 0.140377
0.165896 0.220514 0.140891
0.622830 0.220114 0.142805
0.786589 0.220392 0.144084
0.251070 0.221170 0.140139
0.171626 0.229610 0.139979
0.630107 0.230788 0.143335
0.388690 0.230109 0.143421
0.794307 0.230876 0.142895
0.247289 0.232111 0.139803
0.173170 0.240625 0.141870
0.396151 0.240537 0.142434
0.252915 0.240056 0.140445
0.567238 0.236820 0.139329
0.798263 0.236874 0.143818
0.179838 0.241013 0.139629
0.249441 0.242079 0.138380
0.185853 0.245516 0.138531
0.570928 0.241279 0.143871
0.642418 0.249754 0.143924
0.183062 0.249881 0.140503
0.400384 0.249351 0.144812
0.806018 0.249749 0.144424
0.263459 0.249385 0.140044
0.404087 0.252562 0.141893
0.270453 0.249950 0.141797
0.645987 0.254364 0.141339
0.195305 0.259265 0.138562
0.190554 0.260718 0.139550
0.274357 0.258410 0.139518
0.650077 0.260630 0.143932
0.282093 0.260262 0.141760
0.578684 0.259977 0.143493
0.408158 0.261445 0.143273
0.284464 0.266478 0.139479
0.582291 0.269331 0.142824
0.656832 0.270426 0.143399
0.194860 0.270298 0.139485
0.196165 0.267858 0.138870
0.410553 0.269287 0.145040
0.293544 0.269306 0.141670
0.412979 0.272100 0.141288
0.816866 0.269949 0.142897
0.195485 0.278587 0.140789
0.301457 0.278267 0.142591
0.586121 0.276902 0.143942
0.821339 0.279073 0.143067
0.202316 0.280963 0.139550
0.415081 0.278484 0.144336
0.587814 0.281528 0.143867
0.660463 0.278400 0.145303
0.588003 0.283325 0.138905
0.666353 0.288893 0.143293
0.203089 0.288461 0.140083
0.419618 0.288221 0.143411
0.591285 0.289193 0.143855
0.422823 0.291491 0.139517
0.308732 0.291918 0.138415
0.310984 0.288451 0.141686
0.595119 0.295173 0.144083
0.670865 0.298169 0.144028
0.208195 0.295355 0.138437
0.321383 0.296671 0.142235
0.425244 0.299681 0.142569
0.598440 0.300550 0.143210
0.674236 0.302696 0.140922
0.203562 0.301370 0.140191
0.202310 0.307110 0.141534
0.331026 0.306374 0.142961
0.428318 0.308014 0.144235
0.676892 0.310214 0.143381
0.831116 0.308205 0.142148
0.603114 0.308952 0.141966
0.209730 0.312507 0.139617
0.432043 0.311814 0.141129
0.337817 0.310670 0.145487
0.216788 0.315978 0.138408
0.341139 0.316278 0.143025
0.434073 0.319465 0.142733
0.834754 0.317329 0.145005
0.679778 0.319558 0.142973
0.214653 0.321561 0.140526
0.350222 0.326241 0.142972
0.435997 0.327611 0.144028
0.218943 0.328583 0.139815
0.617793 0.328445 0.144299
0.680559 0.328082 0.143457
0.353655 0.333783 0.140132
0.443383 0.338281 0.140567
0.621914 0.333331 0.143515
0.220500 0.338914 0.140225
0.838557 0.334293 0.143747
0.360366 0.336267 0.143874
0.629039 0.338821 0.142657
0.678449 0.337303 0.143552
0.362137 0.343284 0.139841
0.444257 0.347040 0.143542
0.676643 0.342661 0.141009
0.670718 0.346451 0.143158
0.369101 0.346505 0.142715
0.639551 0.344890 0.144707
0.838049 0.348631 0.140377
0.220391 0.347703 0.143321
0.648295 0.348145 0.143783
0.223021 0.355629 0.145256
0.370540 0.352069 0.140174
0.446999 0.357622 0.144507
0.659503 0.349952 0.143099
0.231151 0.359645 0.140888
0.839054 0.358251 0.139961
0.378748 0.358044 0.141690
0.452603 0.360828 0.140813
0.842065 0.359689 0.143919
0.231724 0.366691 0.143922
0.380477 0.364452 0.139521
0.387956 0.364757 0.139862
0.398742 0.365292 0.140457
0.398184 0.357710 0.144459
0.453468 0.368056 0.142537
0.843076 0.367335 0.144197
0.238968 0.370428 0.140021
0.241219 0.376816 0.141467
0.407486 0.375677 0.141657
0.456674 0.376458 0.141424
0.413904 0.378918 0.144065
0.838495 0.378992 0.140461
0.838153 0.385507 0.140924
0.242676 0.384746 0.146032
0.457015 0.386097 0.142335
0.248885 0.388247 0.141680
0.462680 0.389475 0.139580
0.465671 0.395991 0.140140
0.836330 0.394817 0.140555
0.418275 0.393604 0.144628
0.251324 0.395804 0.144598
0.423353 0.403381 0.140087
0.258875 0.406636 0.142687
0.836383 0.403955 0.141903
0.471143 0.402968 0.139353
0.465181 0.404451 0.142990
0.473517 0.414827 0.139840
0.425306 0.415396 0.141744
0.836065 0.414689 0.142261
0.263017 0.415180 0.143469
0.268935 0.424603 0.142650
0.834197 0.424829 0.143925
0.474531 0.425482 0.140882
0.827476 0.426783 0.140709
0.212296 0.426645 0.143912
0.220560 0.426925 0.139748
0.425259 0.425649 0.142536
0.204368 0.425580 0.143919
0.221629 0.434816 0.143333
0.233153 0.433427 0.139974
0.273359 0.434468 0.143645
0.424574 0.433368 0.141802
0.474912 0.435194 0.142263
0.825693 0.434433 0.142298
0.485630 0.435121 0.139345
0.490016 0.438032 0.139507
0.200166 0.443586 0.139423
0.272027 0.444185 0.143072
0.424272 0.443444 0.140458
0.491270 0.443429 0.140336
0.825010 0.443625 0.144531
0.817359 0.444804 0.140708
0.203294 0.452316 0.140130
0.253760 0.451639 0.143361
0.423429 0.453529 0.142128
0.492330 0.454079 0.143191
0.815544 0.453397 0.143130
0.256062 0.449621 0.138966
0.262113 0.452336 0.143146
0.267687 0.449596 0.143546
0.496918 0.451747 0.138501
0.424992 0.464769 0.141213
0.204429 0.462643 0.142339
0.495331 0.463733 0.143728
0.815129 0.463546 0.144260
0.804828 0.465495 0.141103
0.211561 0.465687 0.139580
0.500026 0.468191 0.140145
0.797001 0.473578 0.141219
0.210773 0.470651 0.139580
0.498208 0.472635 0.144645
0.424433 0.472650 0.142362
0.202153 0.473121 0.142075
0.501321 0.475552 0.143361
0.203185 0.482878 0.143445
0.423492 0.483315 0.140682
0.515007 0.484906 0.144007
0.792515 0.479244 0.138575
0.795128 0.483604 0.141931
0.521139 0.484233 0.142633
0.505708 0.482239 0.144327
0.785876 0.485465 0.140126
0.210788 0.486885 0.139973
0.776826 0.492335 0.141434
0.213726 0.490003 0.144746
0.422669 0.492826 0.139535
0.523422 0.491377 0.143872
0.771892 0.489556 0.138245
0.221804 0.492998 0.142716
0.547616 0.496607 0.139470
0.234322 0.497559 0.142992
0.422855 0.503083 0.139597
0.527803 0.498453 0.143539
0.542581 0.501915 0.144560
0.550321 0.502101 0.143415
0.777456 0.503157 0.142162
0.242252 0.501389 0.143674
0.532675 0.503619 0.144198
0.768360 0.504453 0.139560
0.535563 0.507139 0.141174
0.539691 0.507355 0.141460
0.555063 0.507748 0.143959
0.756731 0.511730 0.141729
0.764983 0.510149 0.143477
0.201101 0.508215 0.139817
0.215452 0.507115 0.141780
0.222676 0.508716 0.144195
0.233085 0.511436 0.144403
0.416142 0.511284 0.143647
0.193160 0.509457 0.141925
0.244423 0.510179 0.143518
0.559774 0.513704 0.141921
0.750732 0.513616 0.139517
0.185548 0.512315 0.143257
0.179629 0.517574 0.141236
0.565829 0.519351 0.144334
0.573981 0.520269 0.144525
0.581360 0.519562 0.143690
0.748767 0.522607 0.143927
0.172959 0.518924 0.142388
0.414590 0.522808 0.141740
0.589263 0.523407 0.144384
0.727591 0.524536 0.142956
0.737680 0.523431 0.143486
0.164548 0.523554 0.142749
0.594101 0.527802 0.142333
0.174390 0.532992 0.142424
0.416037 0.532874 0.141169
0.686830 0.530807 0.143469
0.718173 0.532476 0.142907
0.600613 0.531239 0.145219
0.610057 0.531902 0.143494
0.621975 0.529702 0.144226
0.698860 0.531676 0.143899
0.649396 0.531126 0.143839
0.659690 0.533340 0.144584
0.681830 0.533075 0.145913
0.707660 0.532565 0.141451
0.181830 0.535742 0.142648
0.629049 0.533085 0.145771
0.183979 0.540465 0.144720
0.414400 0.538968 0.139947
0.633930 0.536611 0.142835
0.640874 0.537833 0.142601
0.670619 0.537175 0.143920
0.678506 0.537769 0.144323
0.187570 0.547634 0.144233
0.406763 0.549058 0.142464
0.190367 0.552765 0.143311
0.408090 0.559247 0.140521
0.194014 0.559463 0.143727
0.195091 0.569917 0.144604
0.404939 0.566833 0.141048
0.199919 0.571223 0.139547
0.398130 0.572441 0.143216
0.191522 0.576227 0.142967
0.395883 0.577204 0.139957
0.388798 0.580950 0.144370
0.183603 0.579988 0.143263
0.174707 0.588291 0.143510
0.383491 0.585797 0.138141
0.384350 0.586150 0.141236
0.378650 0.590054 0.143626
0.183868 0.594036 0.140804
0.370859 0.594105 0.140755
0.193045 0.594193 0.139767
0.194217 0.599928 0.143637
0.208195 0.596108 0.138358
0.369069 0.599084 0.142780
0.204302 0.600459 0.141858
0.211355 0.602609 0.141695
0.370278 0.605114 0.142128
0.214705 0.606636 0.144549
0.376190 0.608290 0.143962
0.223189 0.612145 0.142822
0.233663 0.615376 0.143602
0.390344 0.615754 0.143909
0.242027 0.616456 0.143728
0.279950 0.619339 0.142560
0.397628 0.620129 0.143248
0.290818 0.620571 0.142574
0.301657 0.621489 0.140957
0.406363 0.623311 0.140261
0.307392 0.628972 0.140539
0.407925 0.628359 0.143747
0.415486 0.630809 0.141509
0.424979 0.639014 0.141298
0.309051 0.639476 0.142867
0.311866 0.647263 0.143540
0.431993 0.645805 0.139661
0.316171 0.648383 0.139783
0.318263 0.658287 0.141590
0.432443 0.652822 0.139493
0.359556 0.654658 0.143636
0.368525 0.653622 0.143886
0.377705 0.653990 0.142962
0.351212 0.658218 0.142610
0.386543 0.654904 0.143188
0.397024 0.654997 0.145094
0.408296 0.656578 0.142412
0.425543 0.656254 0.140459
0.417418 0.655871 0.142422
0.319648 0.667341 0.143748
0.349936 0.666943 0.144951
0.323340 0.664852 0.138831
0.323258 0.674250 0.142477
0.351540 0.674982 0.142243
0.325955 0.679636 0.142337
0.354682 0.680309 0.143572
0.329934 0.686260 0.142853
0.358187 0.686236 0.144407
0.331933 0.684615 0.138287
0.334013 0.691745 0.142920
0.364922 0.696209 0.141966
0.339735 0.697156 0.143543
0.349723 0.703692 0.144295
0.365576 0.704684 0.142105
0.358658 0.705622 0.144693
0.377581 0.001540 0.145242
0.679733 0.004375 0.141474
0.844263 0.009347 0.145484
0.271261 0.010286 0.144172
0.844244 0.015952 0.144989
0.242472 0.019289 0.145126
0.778286 0.019905 0.144905
0.096500 0.028449 0.144057
0.147005 0.028630 0.145428
0.163617 0.030187 0.143923
0.444637 0.038204 0.143251
0.100455 0.043500 0.144501
0.472808 0.067930 0.144214
0.812554 0.074246 0.145390
0.591401 0.095044 0.143390
0.792667 0.100845 0.145524
0.155191 0.114462 0.143291
0.144713 0.181422 0.143442
0.145737 0.191823 0.144591
0.604854 0.189298 0.145374
0.547581 0.187994 0.141152
0.551079 0.192548 0.144828
0.770694 0.197000 0.143814
0.774651 0.202837 0.144104
0.156585 0.212195 0.143949
0.557271 0.210053 0.141539
0.252878 0.213722 0.140419
0.559584 0.213002 0.144482
0.382391 0.218832 0.144073
0.164350 0.229522 0.142958
0.253441 0.229797 0.142169
0.637614 0.241794 0.144439
0.800832 0.240709 0.145117
0.175176 0.250294 0.143375
0.261738 0.239820 0.142832
0.575414 0.249808 0.143994
0.184005 0.260640 0.141315
0.279623 0.250441 0.145762
0.812434 0.261543 0.143630
0.185170 0.268894 0.141775
0.185053 0.278685 0.143492
0.194657 0.287896 0.142721
0.304436 0.285800 0.140633
0.825848 0.290543 0.143986
0.828732 0.297953 0.143680
0.204533 0.317446 0.143056
0.212231 0.327395 0.142383
0.836324 0.326481 0.144019
0.212756 0.337701 0.144662
0.634768 0.342508 0.141153
0.407140 0.369240 0.145057
0.456809 0.396109 0.143340
0.255912 0.402634 0.143801
0.418963 0.404451 0.144008
0.467515 0.415764 0.144375
0.195017 0.434413 0.142455
0.233147 0.444131 0.144469
0.476395 0.445324 0.144534
0.484286 0.445550 0.141920
0.193986 0.444057 0.143300
0.242109 0.447048 0.143344
0.195559 0.453289 0.144142
0.804630 0.471353 0.145630
0.419957 0.491387 0.144040
0.515392 0.488628 0.143384
0.230581 0.496013 0.144897
0.418146 0.501915 0.144221
0.774707 0.508809 0.145053
0.754972 0.519700 0.144645
0.163757 0.532049 0.144766
0.665006 0.535717 0.141809
0.407745 0.541423 0.144601
0.384526 0.611890 0.144432
0.253164 0.616834 0.143882
0.263018 0.618057 0.144942
0.272270 0.617856 0.142355
0.301368 0.628143 0.145309
0.426690 0.647332 0.142143
0.407925 0.009198 0.144356
0.425420 0.019949 0.145789
0.841376 0.025004 0.144545
0.223484 0.027541 0.145334
0.606930 0.051345 0.143018
0.594960 0.074098 0.146073
0.481572 0.078029 0.144290
0.166064 0.094017 0.144279
0.153200 0.130371 0.141560
0.521315 0.134199 0.146269
0.145134 0.143241 0.144947
0.352648 0.187984 0.144248
0.262390 0.204706 0.144975
0.615030 0.208931 0.145261
0.563642 0.221417 0.144863
0.384498 0.223184 0.143767
0.790796 0.225752 0.142955
0.566638 0.229482 0.143843
0.163961 0.240336 0.145470
0.175523 0.260139 0.144311
0.290212 0.259854 0.146091
0.300299 0.271413 0.145061
0.318138 0.288952 0.145493
0.194107 0.297928 0.143422
0.611406 0.319612 0.146346
0.613523 0.324630 0.146219
0.438993 0.336464 0.145372
0.840073 0.338914 0.144975
0.378217 0.347477 0.145154
0.386774 0.357990 0.144582
0.404129 0.359041 0.145625
0.843263 0.376767 0.145181
0.843719 0.384908 0.145617
0.456775 0.404171 0.144932
0.418293 0.412332 0.145435
0.195692 0.426567 0.145443
0.246425 0.450092 0.145218
0.785174 0.490675 0.144513
0.212041 0.506712 0.145172
0.724460 0.529481 0.144699
0.174706 0.596850 0.145739
0.184454 0.597130 0.145328
0.401305 0.626508 0.146656
0.417127 0.638248 0.144878
0.314571 0.655635 0.144800
0.350838 0.002470 0.145533
0.359001 0.001958 0.145962
0.383910 0.001843 0.146189
0.679088 0.002252 0.145624
0.687996 0.001928 0.146680
0.718233 0.010124 0.146122
0.261862 0.011216 0.146798
0.650731 0.010450 0.146607
0.632910 0.020259 0.146278
0.736431 0.018074 0.147161
0.839702 0.032411 0.145533
0.164659 0.084525 0.146045
0.155884 0.105759 0.145627
0.148774 0.113987 0.147049
0.511526 0.116289 0.146877
0.145807 0.123732 0.146680
0.145237 0.132719 0.146129
0.760824 0.135956 0.146901
0.139507 0.162526 0.146459
0.596242 0.162065 0.145533
0.139613 0.173469 0.146388
0.330927 0.178303 0.145819
0.146186 0.201893 0.147121
0.360737 0.197340 0.146999
0.263118 0.211144 0.146110
0.262581 0.221057 0.145334
0.155578 0.221898 0.146172
0.262515 0.229547 0.145048
0.156051 0.228744 0.146976
0.391919 0.236064 0.145533
0.271483 0.239820 0.146333
0.634534 0.238210 0.146339
0.165612 0.247794 0.146392
0.577644 0.252710 0.146298
0.653643 0.266547 0.146392
0.175461 0.269375 0.145571
0.309029 0.279775 0.146580
0.664045 0.285044 0.144673
0.183311 0.288329 0.146196
0.420939 0.294211 0.145281
0.185607 0.297638 0.146990
0.328123 0.300653 0.145540
0.830200 0.300914 0.145483
0.193215 0.308205 0.146686
0.431127 0.318345 0.146683
0.347887 0.320270 0.146077
0.203992 0.326982 0.146352
0.366015 0.338133 0.147124
0.214981 0.346270 0.146983
0.842085 0.348739 0.146203
0.445586 0.367354 0.146628
0.235743 0.376787 0.146588
0.843650 0.395298 0.144925
0.843262 0.405409 0.146633
0.843190 0.415136 0.146439
0.466180 0.423856 0.147003
0.214292 0.433500 0.147541
0.469790 0.434433 0.146936
0.186139 0.435720 0.146910
0.419880 0.434045 0.146850
0.224416 0.442211 0.147006
0.420157 0.442466 0.146644
0.477927 0.449738 0.145629
0.483556 0.451663 0.146320
0.195744 0.460394 0.146256
0.194955 0.472596 0.146456
0.198471 0.480953 0.145810
0.421188 0.482475 0.145178
0.802902 0.482377 0.145758
0.794933 0.488338 0.145579
0.782645 0.502150 0.145612
0.198169 0.507017 0.146164
0.175625 0.513866 0.146792
0.410437 0.521428 0.145629
0.155482 0.524507 0.146691
0.611969 0.523284 0.147057
0.156770 0.531902 0.146934
0.409672 0.532997 0.145933
0.641113 0.532049 0.147079
0.401099 0.550310 0.147368
0.177610 0.583121 0.145056
0.203810 0.604544 0.146043
0.416505 0.647568 0.146012
0.360019 0.697353 0.147029
0.234536 0.020381 0.146571
0.769531 0.125645 0.146169
0.138841 0.153285 0.147503
0.277721 0.189227 0.147722
0.553543 0.191735 0.152768
0.268912 0.200399 0.147253
0.568481 0.231979 0.146947
0.268343 0.232754 0.146550
0.158030 0.238470 0.147878
0.167090 0.259638 0.147442
0.809948 0.255828 0.146392
0.176673 0.278891 0.147085
0.606553 0.312413 0.146496
0.197024 0.317240 0.147383
0.357908 0.328539 0.147883
0.619578 0.329059 0.153320
0.206608 0.335236 0.147553
0.385720 0.348258 0.147791
0.881951 0.357200 0.147135
0.876418 0.368366 0.146683
0.884459 0.368125 0.145268
0.893170 0.366190 0.146362
0.447221 0.375962 0.147526
0.875829 0.374342 0.146692
0.880354 0.377406 0.145760
0.893566 0.376988 0.146064
0.902161 0.376301 0.147232
0.893776 0.384403 0.146292
0.879706 0.385940 0.146533
0.450993 0.393118 0.147241
0.457113 0.413830 0.147277
0.419462 0.424559 0.147317
0.266317 0.422531 0.146392
0.842174 0.421647 0.147272
0.185759 0.441435 0.147482
0.237617 0.448894 0.147011
0.421207 0.454290 0.146392
0.421472 0.465063 0.146464
0.421328 0.472434 0.146370
0.203610 0.506472 0.146862
0.400723 0.562257 0.146345
0.196451 0.604416 0.146810
0.409380 0.637565 0.147852
0.409580 0.648992 0.147823
0.376092 0.001019 0.153648
0.387310 0.001113 0.151293
0.679840 0.000569 0.151977
0.689544 0.000465 0.153133
0.329275 0.002955 0.151551
0.336243 0.002970 0.155280
0.349262 0.002581 0.153410
0.360290 0.002132 0.152407
0.367780 0.001616 0.152521
0.400180 0.003326 0.152496
0.669061 0.001305 0.153441
0.697500 0.000705 0.154183
0.707484 0.001780 0.153923
0.709049 0.003715 0.150092
0.290974 0.004101 0.155083
0.408094 0.005814 0.152377
0.658744 0.004600 0.153328
0.844860 0.005619 0.152405
0.269980 0.006326 0.152704
0.280973 0.005679 0.152287
0.649615 0.008602 0.153577
0.416501 0.008599 0.154268
0.719316 0.005191 0.153125
0.794749 0.010777 0.152751
0.804068 0.008351 0.151548
0.725490 0.011788 0.147605
0.421069 0.013227 0.149741
0.638575 0.013775 0.151214
0.244189 0.014900 0.149370
0.252775 0.013191 0.149633
0.738941 0.015531 0.151748
0.233389 0.015754 0.152023
0.785166 0.014955 0.152105
0.226980 0.022100 0.148048
0.630910 0.017529 0.154409
0.845571 0.026821 0.151437
0.436719 0.025284 0.152233
0.626911 0.023131 0.150270
0.746837 0.023003 0.149051
0.775928 0.020509 0.154123
0.621600 0.026292 0.153820
0.766084 0.025061 0.152584
0.097601 0.028095 0.149091
0.755973 0.025181 0.151502
0.104045 0.029158 0.149270
0.212655 0.026285 0.153166
0.220519 0.023980 0.150187
0.098156 0.033734 0.149821
0.114835 0.036499 0.150994
0.130858 0.031515 0.149488
0.155778 0.030010 0.150259
0.163701 0.030941 0.150253
0.125867 0.037250 0.152673
0.173340 0.033516 0.153001
0.843576 0.036794 0.153798
0.202870 0.033399 0.150530
0.184361 0.034579 0.153063
0.193525 0.034995 0.151790
0.448231 0.036313 0.150923
0.612821 0.036513 0.152349
0.838552 0.040991 0.149409
0.836198 0.048450 0.151882
0.457179 0.045801 0.152341
0.607945 0.044002 0.152337
0.108896 0.047404 0.149439
0.604805 0.048167 0.154263
0.830518 0.051505 0.148110
0.600764 0.055971 0.152250
0.826960 0.057992 0.151739
0.117780 0.056690 0.151405
0.120003 0.065417 0.150778
0.476783 0.066118 0.153402
0.597009 0.063568 0.150112
0.823697 0.065645 0.154426
0.125374 0.066146 0.153326
0.128618 0.071278 0.150264
0.816402 0.076261 0.153760
0.137506 0.071906 0.150121
0.146378 0.074984 0.153570
0.479143 0.072047 0.149463
0.152480 0.077561 0.151426
0.484455 0.075169 0.153882
0.592340 0.075511 0.154917
0.487471 0.080861 0.150247
0.591112 0.082975 0.152224
0.811649 0.082361 0.152770
0.493695 0.086211 0.153814
0.807381 0.086641 0.152203
0.160075 0.089125 0.148110
0.492523 0.089125 0.148110
0.157783 0.094853 0.147676
0.589143 0.094130 0.152737
0.801990 0.091835 0.152243
0.497900 0.092872 0.153083
0.796590 0.096988 0.152768
0.501406 0.096945 0.154829
0.792171 0.101312 0.149592
0.506166 0.103904 0.153939
0.513351 0.114777 0.152120
0.776834 0.114015 0.153875
0.143345 0.115239 0.150766
0.517645 0.122321 0.151580
0.588936 0.121727 0.153665
0.771458 0.121105 0.150567
0.766566 0.123725 0.154889
0.763032 0.129767 0.151408
0.524387 0.134292 0.154290
0.135303 0.134325 0.152948
0.527037 0.140319 0.152311
0.590264 0.133377 0.152363
0.752931 0.140535 0.151456
0.751231 0.145759 0.148110
0.750875 0.145121 0.154574
0.751058 0.153069 0.154265
0.533090 0.152330 0.153150
0.753504 0.163500 0.154479
0.540056 0.166075 0.152535
0.597649 0.172618 0.152786
0.755740 0.171848 0.152952
0.293372 0.182223 0.151867
0.301468 0.180364 0.153489
0.319785 0.178958 0.152580
0.758632 0.178546 0.152049
0.330853 0.180502 0.152548
0.600558 0.181813 0.153826
0.285893 0.184292 0.149370
0.339926 0.184028 0.153224
0.762754 0.185134 0.154985
0.138954 0.185365 0.148110
0.139362 0.188150 0.148124
0.282615 0.191887 0.153210
0.350063 0.189397 0.153382
0.603607 0.189340 0.151065
0.765815 0.189593 0.153679
0.135505 0.191873 0.152468
0.357416 0.194587 0.149953
0.273596 0.196636 0.148871
0.774685 0.201250 0.154143
0.147709 0.210695 0.148414
0.366277 0.206126 0.154125
0.270405 0.211453 0.151168
0.369789 0.209299 0.153042
0.613610 0.209423 0.152728
0.376188 0.214398 0.151280
0.782299 0.212756 0.153839
0.146090 0.221007 0.151000
0.620716 0.220667 0.152927
0.379803 0.221276 0.153435
0.383275 0.224728 0.148970
0.787322 0.219815 0.152339
0.628760 0.232293 0.152185
0.795274 0.229374 0.154954
0.386028 0.231042 0.152444
0.390711 0.237743 0.151925
0.572212 0.240130 0.152280
0.633665 0.239084 0.152225
0.799172 0.236103 0.149829
0.394575 0.244068 0.151147
0.575833 0.246768 0.153376
0.807210 0.247996 0.152351
0.283349 0.245933 0.150573
0.577927 0.251914 0.152614
0.640419 0.249862 0.152688
0.161793 0.253726 0.148987
0.286575 0.253535 0.148240
0.397319 0.250785 0.153679
0.814368 0.259879 0.153249
0.580500 0.261072 0.152610
0.648497 0.261897 0.152806
0.169019 0.267052 0.148221
0.304675 0.270436 0.149496
0.583499 0.269321 0.153372
0.818110 0.269134 0.149797
0.406621 0.270313 0.153980
0.655737 0.272626 0.150739
0.586173 0.275316 0.152403
0.824208 0.279716 0.152605
0.311775 0.277526 0.151155
0.408718 0.279063 0.155580
0.588037 0.279520 0.152500
0.658857 0.279559 0.152866
0.172566 0.280369 0.150340
0.414822 0.282834 0.150945
0.174181 0.289433 0.151878
0.591663 0.288461 0.152517
0.178717 0.287960 0.148154
0.415458 0.288137 0.153686
0.827274 0.287725 0.152139
0.330459 0.295807 0.151990
0.418093 0.298670 0.154598
0.595360 0.295429 0.152975
0.831420 0.297751 0.152062
0.598711 0.300531 0.153334
0.182310 0.300874 0.149728
0.187559 0.303963 0.148104
0.603430 0.307695 0.152830
0.424524 0.308745 0.151076
0.673195 0.306953 0.153345
0.606527 0.312158 0.149984
0.675122 0.310965 0.151803
0.835996 0.308137 0.154051
0.341390 0.308578 0.150931
0.425952 0.318060 0.152569
0.836953 0.317333 0.150550
0.677367 0.318070 0.154135
0.194005 0.320118 0.151134
0.609972 0.318576 0.154047
0.350877 0.317054 0.151292
0.615032 0.326236 0.151585
0.838842 0.327478 0.149748
0.360675 0.324709 0.151344
0.678914 0.327841 0.152586
0.676548 0.337794 0.152544
0.623664 0.335688 0.154294
0.844265 0.337470 0.152171
0.378130 0.339567 0.147949
0.377002 0.335118 0.151452
0.434323 0.337534 0.149723
0.433968 0.346314 0.152507
0.628990 0.339945 0.152541
0.670071 0.344639 0.152511
0.845605 0.345602 0.151438
0.212282 0.349540 0.151756
0.649666 0.348278 0.151860
0.440001 0.350100 0.148142
0.660830 0.347983 0.152738
0.398756 0.355349 0.153479
0.404625 0.359233 0.151425
0.846882 0.354224 0.149864
0.876986 0.356080 0.148217
0.440360 0.359370 0.148240
0.221258 0.360102 0.150086
0.406458 0.368705 0.152657
0.222958 0.366598 0.154511
0.440184 0.367752 0.148066
0.901205 0.368292 0.147786
0.226688 0.365817 0.148110
0.228339 0.369967 0.149516
0.871589 0.366976 0.149912
0.440954 0.376536 0.148481
0.231424 0.376433 0.153078
0.870900 0.376762 0.150326
0.406989 0.376266 0.152859
0.448617 0.384206 0.148072
0.875007 0.381285 0.147887
0.871869 0.386151 0.150753
0.902505 0.385581 0.147193
0.239759 0.386372 0.152344
0.908572 0.385650 0.148362
0.849228 0.389018 0.147739
0.854425 0.385561 0.151307
0.243608 0.392996 0.154462
0.849228 0.392455 0.147611
0.854963 0.394174 0.153030
0.876952 0.394100 0.147918
0.883761 0.394410 0.147459
0.891697 0.395824 0.147802
0.900929 0.395716 0.147894
0.247709 0.395240 0.150101
0.251970 0.404441 0.153167
0.846917 0.403499 0.148893
0.449096 0.404230 0.152843
0.260072 0.416182 0.151425
0.455954 0.415318 0.153281
0.846742 0.414768 0.149421
0.413355 0.415406 0.150421
0.263771 0.424971 0.152876
0.467078 0.425683 0.153404
0.844067 0.423429 0.153838
0.193432 0.426076 0.153389
0.188235 0.427686 0.148751
0.201815 0.427883 0.151195
0.838082 0.428163 0.151849
0.267032 0.428831 0.149524
0.181623 0.434325 0.150089
0.211726 0.435970 0.150806
0.269867 0.435528 0.152439
0.832042 0.431124 0.147524
0.469316 0.434413 0.151655
0.416364 0.435415 0.151895
0.474506 0.442633 0.153204
0.835890 0.434247 0.152318
0.832042 0.439717 0.147904
0.834450 0.444146 0.153254
0.181492 0.445069 0.150803
0.416759 0.443522 0.154553
0.829263 0.446620 0.149330
0.187877 0.452012 0.148302
0.232404 0.451825 0.153360
0.825948 0.453485 0.153465
0.478082 0.449950 0.151569
0.243638 0.451432 0.152242
0.484531 0.451000 0.150314
0.821731 0.451599 0.148230
0.262239 0.452380 0.152611
0.493707 0.452311 0.153949
0.418907 0.462810 0.152720
0.821731 0.459063 0.148533
0.497452 0.462741 0.152077
0.823405 0.462323 0.152248
0.818252 0.467293 0.153332
0.504679 0.473725 0.151951
0.813138 0.469286 0.148110
0.418218 0.472409 0.153117
0.190592 0.476352 0.150009
0.807955 0.476278 0.154473
0.195988 0.482991 0.153370
0.417793 0.484041 0.151908
0.806969 0.483511 0.153076
0.515771 0.481139 0.149035
0.523730 0.483521 0.152051
0.206524 0.488156 0.151407
0.795367 0.489973 0.154191
0.527134 0.491358 0.150969
0.786968 0.492404 0.153954
0.221989 0.492895 0.151880
0.415606 0.492359 0.153620
0.242688 0.501183 0.152916
0.413428 0.501394 0.153705
0.783980 0.503069 0.151488
0.534060 0.500304 0.150158
0.553903 0.500947 0.152839
0.213803 0.509717 0.151783
0.204030 0.506319 0.150223
0.243580 0.512477 0.152495
0.181722 0.507856 0.149720
0.187204 0.506884 0.153510
0.556329 0.508072 0.149829
0.775987 0.509197 0.151710
0.410273 0.511568 0.152529
0.562355 0.510822 0.152295
0.766245 0.510066 0.153541
0.575457 0.512585 0.148171
0.578754 0.512855 0.148141
0.233196 0.515487 0.149790
0.755755 0.510866 0.153561
0.754692 0.518472 0.150203
0.164741 0.512226 0.154261
0.162136 0.518055 0.149982
0.566231 0.517456 0.150717
0.583376 0.511136 0.150650
0.154244 0.519646 0.152776
0.406655 0.521919 0.153252
0.570728 0.518767 0.149533
0.609941 0.518266 0.150132
0.593035 0.521310 0.150267
0.620215 0.525224 0.148176
0.641967 0.525872 0.148341
0.646091 0.524860 0.148455
0.728808 0.521153 0.152860
0.747064 0.520751 0.153450
0.145893 0.522739 0.154212
0.606093 0.526221 0.148369
0.622097 0.521738 0.151224
0.651591 0.520972 0.152552
0.718127 0.521281 0.152864
0.404746 0.531548 0.153113
0.717022 0.531666 0.150329
0.601752 0.529810 0.148890
0.631918 0.529540 0.150442
0.659582 0.528887 0.150463
0.689472 0.527964 0.150414
0.677551 0.532162 0.149319
0.697560 0.529221 0.151985
0.637753 0.531808 0.149254
0.669756 0.530640 0.151500
0.707187 0.531288 0.151963
0.174045 0.541595 0.151629
0.177260 0.537676 0.147736
0.181084 0.543647 0.151317
0.403203 0.539645 0.150285
0.400751 0.542459 0.153255
0.184257 0.550075 0.153837
0.398076 0.549623 0.153707
0.191055 0.561481 0.151424
0.395830 0.559929 0.152423
0.191148 0.569180 0.150741
0.393875 0.568527 0.150567
0.392470 0.573767 0.148110
0.184945 0.571596 0.154382
0.182737 0.577724 0.151022
0.385529 0.578034 0.153137
0.177432 0.580494 0.154361
0.170665 0.588345 0.152173
0.168288 0.592239 0.152656
0.376905 0.588792 0.152245
0.173465 0.600685 0.153276
0.369556 0.598652 0.152743
0.183525 0.601534 0.152731
0.193992 0.606552 0.152788
0.371186 0.607333 0.154103
0.212915 0.607971 0.152730
0.378767 0.611006 0.151409
0.220563 0.612312 0.152941
0.384049 0.613569 0.149377
0.225522 0.615572 0.154977
0.233131 0.617497 0.153705
0.387097 0.619780 0.151983
0.243575 0.619604 0.153412
0.251845 0.620610 0.152810
0.280547 0.625275 0.152865
0.286390 0.623566 0.148132
0.291929 0.625845 0.152839
0.298523 0.629380 0.152241
0.396192 0.627720 0.150778
0.303980 0.638165 0.154283
0.406475 0.639102 0.149306
0.306324 0.641739 0.154753
0.309101 0.647381 0.153852
0.313458 0.656912 0.152009
0.400677 0.652512 0.148110
0.368435 0.653308 0.152075
0.377384 0.653057 0.150103
0.386906 0.653052 0.149459
0.358948 0.655483 0.153106
0.352506 0.660069 0.154372
0.350897 0.665647 0.152488
0.318141 0.665991 0.154037
0.322593 0.675320 0.152134
0.350265 0.676916 0.154727
0.354274 0.680943 0.150188
0.330715 0.685588 0.152886
0.355464 0.687930 0.150355
0.341052 0.695202 0.151333
0.357153 0.694927 0.149338
0.350536 0.696538 0.151541
0.340526 0.002584 0.151548
0.394153 0.001641 0.153933
0.665339 0.002815 0.150557
0.302436 0.003558 0.155137
0.309707 0.003244 0.155079
0.320705 0.003025 0.153830
0.728082 0.007783 0.153756
0.852715 0.008946 0.154293
0.260698 0.008264 0.153426
0.253610 0.010433 0.152866
0.639834 0.011549 0.155410
0.426567 0.015803 0.152923
0.847510 0.017901 0.149829
0.745265 0.017621 0.154177
0.145466 0.029958 0.150815
0.106350 0.036617 0.150474
0.137083 0.030851 0.150760
0.444252 0.029750 0.154325
0.116369 0.046617 0.151858
0.467630 0.055585 0.152238
0.818643 0.068055 0.150012
0.595283 0.065778 0.153655
0.155200 0.084303 0.151578
0.153767 0.094212 0.150030
0.588628 0.105253 0.153982
0.785800 0.106429 0.153158
0.588529 0.115142 0.154294
0.137528 0.123810 0.153264
0.757251 0.132758 0.154790
0.591242 0.142964 0.153434
0.134380 0.141185 0.151874
0.137733 0.145838 0.148543
0.134327 0.153428 0.151099
0.593021 0.151697 0.151983
0.537105 0.160279 0.153074
0.594761 0.163219 0.154273
0.310164 0.178767 0.153266
0.134452 0.179350 0.151721
0.546823 0.180427 0.151077
0.274381 0.202292 0.151806
0.360370 0.200270 0.154280
0.136521 0.203060 0.154391
0.143317 0.204828 0.149740
0.557888 0.206089 0.148695
0.778873 0.207707 0.149829
0.143063 0.211715 0.151359
0.272315 0.220603 0.151596
0.565469 0.220429 0.152858
0.791433 0.224179 0.153042
0.145353 0.230539 0.153403
0.273322 0.229174 0.149989
0.568700 0.230322 0.151945
0.153208 0.241902 0.151571
0.281918 0.239290 0.152570
0.803225 0.241264 0.153286
0.278657 0.243798 0.148581
0.155867 0.250809 0.151882
0.161191 0.261479 0.150674
0.294983 0.258838 0.149745
0.300820 0.261347 0.152972
0.165333 0.269797 0.151120
0.317932 0.280762 0.153837
0.662781 0.286914 0.153265
0.322121 0.286674 0.151416
0.665380 0.291668 0.152777
0.327271 0.290234 0.153938
0.668533 0.297904 0.153648
0.186371 0.309467 0.151436
0.194594 0.327468 0.153881
0.426486 0.327768 0.152577
0.202525 0.337176 0.151862
0.369945 0.335055 0.150879
0.386313 0.336788 0.152635
0.205502 0.344021 0.154215
0.390241 0.345553 0.152241
0.874524 0.346216 0.150036
0.883369 0.345980 0.149432
0.639751 0.346299 0.153004
0.881881 0.350350 0.148245
0.891842 0.346913 0.151295
0.435433 0.357745 0.152266
0.890045 0.353787 0.148317
0.895696 0.354357 0.149774
0.901989 0.357234 0.152196
0.869717 0.357033 0.150988
0.897349 0.360662 0.148383
0.904359 0.365665 0.150120
0.853952 0.366431 0.152082
0.435478 0.367703 0.152278
0.911320 0.368042 0.154451
0.911934 0.376173 0.150934
0.435637 0.376915 0.152309
0.847510 0.378707 0.148944
0.436873 0.386254 0.154801
0.443387 0.386563 0.150094
0.407625 0.385861 0.152755
0.914353 0.384624 0.150524
0.413893 0.387835 0.148977
0.445978 0.394459 0.153715
0.913655 0.396929 0.150424
0.871645 0.396413 0.151205
0.414262 0.396752 0.149503
0.854259 0.403690 0.154366
0.873277 0.404309 0.151799
0.882505 0.405453 0.150585
0.892446 0.406818 0.150948
0.904223 0.400189 0.149011
0.912178 0.404157 0.151573
0.414291 0.426729 0.152757
0.205042 0.434684 0.154189
0.213371 0.443311 0.155176
0.221401 0.446439 0.152141
0.270727 0.443380 0.152498
0.184372 0.455253 0.151586
0.418185 0.452812 0.153185
0.254162 0.454050 0.154618
0.184648 0.463531 0.153426
0.192109 0.463202 0.149042
0.812656 0.471584 0.154346
0.184446 0.471992 0.154097
0.515298 0.474010 0.151969
0.509139 0.480835 0.149501
0.201353 0.485947 0.152089
0.213767 0.490670 0.152752
0.802081 0.488313 0.155092
0.542935 0.493111 0.151275
0.533427 0.492629 0.153183
0.195459 0.506746 0.149978
0.571198 0.509069 0.151497
0.174397 0.508927 0.153060
0.221858 0.511239 0.149594
0.639048 0.520701 0.152105
0.600002 0.521733 0.151350
0.737667 0.520623 0.155010
0.659713 0.522734 0.154148
0.679918 0.521634 0.152839
0.144579 0.531362 0.151125
0.152171 0.534980 0.150541
0.164759 0.541747 0.151713
0.167665 0.597876 0.153895
0.205531 0.607677 0.153000
0.263030 0.621646 0.151613
0.271353 0.622624 0.150436
0.392994 0.622864 0.150170
0.402681 0.632704 0.149352
0.404221 0.647420 0.149630
0.396050 0.648162 0.151461
0.736983 0.010538 0.155289
0.852711 0.016160 0.155481
0.223229 0.018015 0.154619
0.833074 0.055419 0.155218
0.471919 0.059359 0.153593
0.146463 0.095787 0.154131
0.144083 0.105638 0.153114
0.529696 0.143776 0.155114
0.134677 0.164106 0.151830
0.134393 0.171960 0.152111
0.544232 0.173096 0.153924
0.550204 0.184019 0.154574
0.345682 0.186299 0.151548
0.562105 0.212216 0.154331
0.280653 0.230139 0.155045
0.292705 0.249773 0.154564
0.400809 0.260237 0.156231
0.154735 0.261754 0.154573
0.403331 0.262402 0.153535
0.308713 0.269675 0.154666
0.174492 0.297521 0.153911
0.359853 0.317392 0.154310
0.369670 0.327134 0.155007
0.843900 0.328180 0.154361
0.427023 0.338541 0.152382
0.882872 0.336606 0.151956
0.872327 0.337686 0.152265
0.853016 0.356453 0.152209
0.215832 0.357485 0.154788
0.852940 0.376423 0.152528
0.921032 0.385355 0.154513
0.408433 0.394336 0.153623
0.920940 0.394420 0.153058
0.408154 0.403739 0.155069
0.412707 0.405345 0.150630
0.901220 0.407692 0.151083
0.851438 0.413447 0.154517
0.184397 0.425580 0.154212
0.233262 0.495252 0.153355
0.573207 0.502568 0.153784
0.581061 0.503908 0.154044
0.591001 0.511833 0.153599
0.610648 0.512418 0.154419
0.155876 0.541030 0.153567
0.389595 0.571449 0.153933
0.381159 0.582315 0.155450
0.397915 0.638066 0.152741
0.386869 0.648437 0.154070
0.378400 0.650101 0.155262
0.826887 0.005964 0.153266
0.837198 0.005152 0.153266
0.816145 0.007154 0.155844
0.244066 0.009528 0.156066
0.431988 0.019636 0.155328
0.755230 0.021277 0.155567
0.203982 0.027441 0.156196
0.136516 0.036373 0.155212
0.145159 0.035557 0.156562
0.155207 0.033393 0.156171
0.164040 0.033476 0.156285
0.196472 0.029900 0.156778
0.452998 0.039061 0.154610
0.841315 0.045764 0.155903
0.464863 0.051060 0.155300
0.126072 0.057249 0.156304
0.135669 0.066282 0.155400
0.820569 0.072005 0.154987
0.509772 0.107944 0.154400
0.136124 0.115879 0.156617
0.521170 0.126030 0.156609
0.129648 0.144307 0.155478
0.130333 0.161215 0.155389
0.596485 0.169480 0.153323
0.288712 0.189513 0.156464
0.556964 0.197948 0.156352
0.608203 0.200384 0.154700
0.279779 0.201456 0.155608
0.558460 0.202990 0.154075
0.136613 0.212508 0.156103
0.616404 0.214562 0.153591
0.382269 0.227348 0.156420
0.146402 0.239737 0.155410
0.288849 0.241986 0.156629
0.811015 0.253579 0.154125
0.155480 0.269503 0.156776
0.651404 0.266944 0.155075
0.820729 0.270298 0.155418
0.165853 0.278533 0.154497
0.337871 0.298832 0.155767
0.176959 0.306644 0.155999
0.417534 0.309885 0.156897
0.349008 0.309835 0.155573
0.185576 0.317481 0.156021
0.842067 0.318188 0.155852
0.196828 0.335698 0.156655
0.893387 0.337470 0.155264
0.426009 0.347031 0.155585
0.633131 0.343206 0.154716
0.862997 0.346515 0.153701
0.395713 0.350080 0.155339
0.899047 0.347635 0.154746
0.861980 0.356046 0.153252
0.864004 0.367497 0.154022
0.863258 0.376743 0.156155
0.919788 0.377681 0.156132
0.235322 0.383308 0.156012
0.921458 0.404294 0.154035
0.255255 0.412406 0.156227
0.873570 0.414090 0.155102
0.409453 0.414576 0.155569
0.883712 0.416010 0.155083
0.890818 0.415165 0.154090
0.900431 0.414714 0.153656
0.464734 0.416712 0.156642
0.411651 0.423866 0.156703
0.175367 0.426901 0.156336
0.174220 0.434031 0.154722
0.265385 0.431374 0.156396
0.473359 0.434934 0.156672
0.174767 0.443552 0.154899
0.484641 0.443493 0.155236
0.177108 0.452763 0.156057
0.224063 0.451707 0.155753
0.504849 0.465579 0.155989
0.523994 0.476082 0.155328
0.552005 0.492742 0.155621
0.238116 0.496995 0.153692
0.194934 0.508077 0.156444
0.204459 0.509973 0.156116
0.746352 0.510684 0.155752
0.242011 0.518595 0.156342
0.600394 0.510851 0.155925
0.620708 0.515251 0.155052
0.233103 0.519209 0.154076
0.156239 0.515560 0.156236
0.640952 0.515192 0.155845
0.648927 0.515929 0.156173
0.630751 0.521242 0.153994
0.689431 0.520976 0.155119
0.139052 0.524718 0.156369
0.671474 0.522292 0.154745
0.136375 0.531082 0.154332
0.402569 0.534362 0.155690
0.185290 0.560499 0.156369
0.372417 0.592538 0.155071
0.187660 0.604623 0.154985
0.379107 0.616805 0.156460
0.387873 0.629130 0.156071
0.269607 0.625226 0.156570
0.327062 0.679784 0.155814
0.349103 0.687689 0.154526
0.339523 0.687596 0.156441
0.237414 0.011734 0.155965
0.423322 0.011611 0.155658
0.126306 0.046872 0.155929
0.145987 0.085939 0.156876
0.130858 0.152712 0.153831
0.129656 0.171090 0.156490
0.130235 0.182914 0.155633
0.278524 0.212593 0.156768
0.137828 0.220408 0.156162
0.278798 0.222311 0.155766
0.139410 0.228735 0.156818
0.147914 0.249400 0.157089
0.298630 0.254723 0.155781
0.169758 0.285618 0.154634
0.368119 0.319376 0.156809
0.872305 0.328298 0.155800
0.883192 0.326467 0.155771
0.378828 0.330400 0.156220
0.862678 0.335880 0.156058
0.853260 0.345081 0.156190
0.907786 0.359837 0.156356
0.402019 0.366421 0.156931
0.862989 0.385169 0.156655
0.864512 0.395176 0.156951
0.927843 0.395141 0.156824
0.929340 0.404024 0.156943
0.910979 0.415165 0.155448
0.198104 0.431949 0.155942
0.206882 0.440468 0.157189
0.490980 0.442756 0.156726
0.514030 0.465736 0.155886
0.188303 0.479426 0.155961
0.543860 0.486138 0.155610
0.778137 0.493896 0.157279
0.777037 0.502705 0.156532
0.563027 0.500869 0.156901
0.222839 0.517505 0.155091
0.706223 0.521693 0.156225
0.699070 0.522228 0.156471
0.145420 0.539954 0.157080
0.164166 0.548572 0.156890
0.388555 0.639903 0.156632
0.369339 0.651658 0.156360
0.357712 0.002919 0.156703
0.216788 0.020381 0.156228
0.849985 0.024559 0.156712
0.658373 0.279652 0.162243
0.669778 0.299966 0.161229
0.594045 0.298046 0.163262
0.420013 0.318964 0.157343
0.875205 0.321478 0.157430
0.612877 0.326054 0.165171
0.421358 0.328008 0.156703
0.890712 0.328602 0.156889
0.864660 0.329550 0.157315
0.385579 0.330591 0.160988
0.387840 0.337637 0.163143
0.852952 0.338104 0.157286
0.420176 0.336812 0.157260
0.415315 0.335821 0.163399
0.390898 0.344021 0.163057
0.421516 0.343156 0.156532
0.419181 0.346643 0.162949
0.631251 0.345297 0.162253
0.394268 0.349555 0.158910
0.431230 0.361889 0.156916
0.430717 0.363956 0.160822
0.433933 0.368587 0.163903
0.435769 0.375191 0.162823
0.866511 0.407491 0.156703
0.920392 0.414517 0.157060
0.903017 0.422624 0.157209
0.893052 0.423032 0.157052
0.267793 0.437561 0.163758
0.840351 0.437139 0.156703
0.840090 0.439717 0.156703
0.261516 0.450490 0.160920
0.222166 0.452945 0.161922
0.232243 0.453451 0.163916
0.521570 0.467823 0.157098
0.532741 0.483820 0.156978
0.212931 0.489276 0.163026
0.233653 0.492541 0.163568
0.243535 0.501969 0.163695
0.588204 0.505023 0.156585
0.182523 0.510518 0.163175
0.715608 0.514308 0.156703
0.242969 0.521202 0.162160
0.128511 0.533173 0.157185
0.135601 0.537494 0.156485
0.156554 0.547664 0.156996
0.175542 0.546367 0.156703
0.261477 0.624298 0.157811
0.377464 0.001963 0.161371
0.399244 0.001515 0.163698
0.659943 0.001446 0.162394
0.707445 0.000183 0.162504
0.718134 0.000965 0.162683
0.302435 0.002953 0.163360
0.318184 0.002694 0.158422
0.328922 0.004077 0.163021
0.364757 0.003121 0.158422
0.368563 0.005666 0.163927
0.407709 0.003569 0.163107
0.657025 0.003195 0.158750
0.262562 0.004028 0.162983
0.338993 0.004538 0.162017
0.349976 0.006738 0.164107
0.360098 0.006880 0.164136
0.253688 0.005344 0.161955
0.729595 0.003568 0.160332
0.738150 0.005485 0.162088
0.844831 0.004936 0.161286
0.854512 0.005744 0.162112
0.418574 0.007100 0.161829
0.648884 0.004746 0.164659
0.822235 0.006456 0.164116
0.233504 0.009825 0.162839
0.426590 0.009999 0.164421
0.641205 0.008729 0.163621
0.795618 0.009428 0.163616
0.803686 0.008097 0.163148
0.861342 0.008825 0.164293
0.746375 0.008917 0.163348
0.430138 0.013939 0.160141
0.747876 0.014145 0.160034
0.789460 0.011481 0.163470
0.863116 0.016980 0.164050
0.219847 0.015153 0.160194
0.629823 0.014718 0.162850
0.785307 0.013866 0.163873
0.436394 0.018206 0.164167
0.756817 0.015956 0.162470
0.855807 0.019560 0.159834
0.212707 0.015825 0.163345
0.777517 0.018608 0.163522
0.771295 0.022253 0.159109
0.854241 0.026730 0.163223
0.204130 0.022950 0.159766
0.764588 0.022589 0.159302
0.441063 0.024669 0.159281
0.618372 0.025475 0.164125
0.445109 0.025699 0.163120
0.192970 0.025726 0.163027
0.185963 0.027923 0.164838
0.851492 0.035865 0.164274
0.181491 0.032616 0.160530
0.172556 0.033816 0.163469
0.450790 0.032841 0.159209
0.610847 0.035330 0.161911
0.164307 0.036565 0.164524
0.847318 0.039698 0.160201
0.155993 0.039109 0.162758
0.456086 0.036132 0.164267
0.133339 0.045415 0.158011
0.137427 0.047409 0.159434
0.459779 0.042951 0.161020
0.844990 0.047819 0.160237
0.465400 0.047652 0.162943
0.602792 0.047019 0.163127
0.133953 0.056596 0.158340
0.468622 0.052227 0.159281
0.598305 0.056199 0.162750
0.836379 0.058521 0.162318
0.137980 0.056338 0.159567
0.474510 0.056437 0.163372
0.139961 0.063259 0.159110
0.831603 0.065172 0.163965
0.478108 0.062839 0.160145
0.141217 0.066702 0.158367
0.827821 0.068740 0.163475
0.142216 0.066033 0.164398
0.593926 0.065211 0.163841
0.142529 0.074473 0.161913
0.482149 0.066538 0.164223
0.823867 0.073176 0.163159
0.486372 0.072473 0.163373
0.817982 0.078437 0.163117
0.491578 0.078354 0.162984
0.142064 0.082288 0.161045
0.812591 0.082973 0.162331
0.589372 0.084733 0.162844
0.141362 0.090270 0.158897
0.136167 0.093952 0.162263
0.587843 0.094756 0.161599
0.801850 0.091609 0.160785
0.796055 0.095998 0.162556
0.139451 0.097717 0.158359
0.504049 0.095395 0.163933
0.139451 0.102014 0.157187
0.786356 0.102963 0.163358
0.508298 0.101860 0.163830
0.587457 0.105277 0.162086
0.511685 0.106476 0.162815
0.778249 0.108549 0.163458
0.516287 0.113925 0.161000
0.766659 0.117071 0.164748
0.520909 0.121490 0.162667
0.131986 0.121247 0.159332
0.763176 0.122635 0.160904
0.126100 0.133694 0.162970
0.758822 0.124308 0.164245
0.526133 0.133148 0.162738
0.753715 0.133900 0.163642
0.128757 0.137245 0.158422
0.752023 0.142401 0.164151
0.124241 0.142420 0.162211
0.530915 0.142369 0.163072
0.751353 0.145847 0.160422
0.535175 0.152502 0.162911
0.591997 0.152926 0.164404
0.754494 0.162029 0.164842
0.124105 0.163773 0.161607
0.541530 0.164272 0.162190
0.124430 0.171398 0.160972
0.546412 0.172474 0.163853
0.550583 0.181535 0.161541
0.124189 0.180629 0.160776
0.310999 0.183166 0.161156
0.319376 0.183407 0.163289
0.329454 0.183646 0.162031
0.762143 0.183407 0.161268
0.302142 0.185507 0.160941
0.340264 0.188318 0.164324
0.129696 0.192107 0.158422
0.292642 0.193503 0.162887
0.348871 0.192877 0.163574
0.768068 0.191905 0.165128
0.603789 0.191401 0.163899
0.775330 0.200826 0.163547
0.125351 0.191948 0.162682
0.131701 0.202582 0.159070
0.284358 0.202925 0.159870
0.358388 0.201566 0.162789
0.779073 0.206516 0.161075
0.367931 0.212195 0.162716
0.614308 0.211236 0.161898
0.783176 0.211634 0.163319
0.377082 0.222737 0.160815
0.789352 0.219232 0.163224
0.133332 0.221021 0.159909
0.282909 0.220523 0.159478
0.792405 0.223009 0.163221
0.378470 0.229148 0.164253
0.625042 0.226618 0.163646
0.133559 0.230432 0.162548
0.289273 0.230127 0.163590
0.384257 0.233599 0.160429
0.568828 0.229186 0.163124
0.386616 0.241102 0.162203
0.805510 0.240360 0.162588
0.571621 0.239324 0.163558
0.135767 0.238941 0.163653
0.293397 0.239869 0.162453
0.632341 0.238485 0.161373
0.143705 0.250127 0.160401
0.575450 0.247731 0.163484
0.389057 0.249665 0.164183
0.395103 0.251354 0.159543
0.300985 0.250485 0.162092
0.577942 0.252803 0.161428
0.147938 0.255425 0.158417
0.640258 0.250240 0.162692
0.813531 0.251492 0.164377
0.146026 0.260104 0.161337
0.303836 0.257139 0.159621
0.580097 0.261376 0.163509
0.816703 0.259250 0.160994
0.306154 0.262702 0.157718
0.310100 0.259250 0.163854
0.399832 0.266890 0.160954
0.651798 0.268810 0.162149
0.824369 0.268314 0.164033
0.313138 0.268550 0.160255
0.582599 0.269778 0.162918
0.403027 0.272154 0.158713
0.155410 0.279220 0.162199
0.402924 0.279367 0.159546
0.585892 0.277025 0.162603
0.160074 0.277821 0.157914
0.321119 0.277600 0.160367
0.161630 0.281557 0.158612
0.587664 0.281587 0.161111
0.162875 0.288879 0.160821
0.408360 0.288324 0.160600
0.589698 0.288270 0.162885
0.662764 0.287234 0.160286
0.834878 0.289060 0.163320
0.830324 0.289340 0.157568
0.836688 0.297521 0.161235
0.168667 0.295085 0.158422
0.341537 0.294928 0.159661
0.413891 0.298365 0.159703
0.165846 0.298233 0.162900
0.171531 0.303374 0.159170
0.344823 0.303089 0.157166
0.600395 0.309040 0.163960
0.349693 0.299490 0.163064
0.672395 0.305608 0.159074
0.837169 0.303590 0.158740
0.172950 0.310592 0.163003
0.352778 0.307051 0.160634
0.358590 0.307321 0.163338
0.842336 0.312315 0.158442
0.178979 0.313400 0.158428
0.361991 0.312173 0.158253
0.675775 0.310621 0.164252
0.368312 0.310621 0.164659
0.605219 0.313474 0.157703
0.181687 0.319032 0.159944
0.415740 0.319126 0.158861
0.678126 0.318345 0.162436
0.371326 0.316823 0.162346
0.873213 0.316165 0.159585
0.884849 0.316391 0.159800
0.879733 0.319847 0.157539
0.188001 0.324144 0.157957
0.852886 0.317068 0.161935
0.416833 0.327817 0.160134
0.854539 0.327041 0.159708
0.894389 0.325538 0.160234
0.378928 0.327350 0.163400
0.679994 0.327655 0.163226
0.863673 0.325460 0.159069
0.190378 0.330346 0.160133
0.852092 0.329727 0.158410
0.678410 0.337353 0.164003
0.193110 0.338178 0.163990
0.621911 0.338448 0.164449
0.897349 0.338320 0.157469
0.901408 0.336547 0.163153
0.669095 0.346250 0.163143
0.904028 0.345931 0.162711
0.203194 0.348666 0.162402
0.639396 0.349942 0.162988
0.648951 0.350330 0.160999
0.658967 0.349682 0.162715
0.424503 0.351371 0.163068
0.905558 0.352299 0.159298
0.211379 0.358835 0.162831
0.428778 0.356139 0.162688
0.394631 0.359920 0.159596
0.910832 0.356782 0.162676
0.914650 0.363819 0.160943
0.220428 0.369264 0.162629
0.397402 0.367845 0.159712
0.227067 0.373634 0.158422
0.398223 0.376875 0.161327
0.923120 0.375338 0.161152
0.229161 0.378618 0.161694
0.233081 0.385743 0.162513
0.397277 0.385188 0.163694
0.436533 0.383450 0.160140
0.445549 0.385056 0.161182
0.926565 0.389878 0.157275
0.241995 0.395598 0.161819
0.400049 0.394591 0.164010
0.448208 0.393545 0.159968
0.863952 0.394606 0.158584
0.402950 0.397022 0.159054
0.932173 0.393202 0.160744
0.246016 0.402836 0.164126
0.404211 0.405217 0.162194
0.861470 0.404373 0.158972
0.450188 0.402138 0.159257
0.249652 0.406636 0.160049
0.455921 0.405144 0.161608
0.407127 0.415416 0.163562
0.451844 0.409666 0.157773
0.852383 0.414335 0.161598
0.862132 0.414625 0.163346
0.467007 0.414188 0.159680
0.926565 0.412219 0.157712
0.254132 0.413962 0.164350
0.258918 0.419496 0.158919
0.868922 0.419177 0.159131
0.921878 0.417395 0.158503
0.873567 0.420238 0.158211
0.882263 0.420542 0.157816
0.911034 0.420847 0.157953
0.843307 0.423940 0.162246
0.874177 0.425271 0.163964
0.883962 0.425943 0.160925
0.182820 0.426037 0.160778
0.174300 0.426066 0.164584
0.260405 0.425285 0.163897
0.475672 0.424284 0.162616
0.890771 0.427107 0.158831
0.904499 0.427652 0.159663
0.166023 0.427549 0.163543
0.412532 0.429042 0.158786
0.169097 0.434993 0.157331
0.194238 0.434743 0.160831
0.840416 0.433937 0.159485
0.163621 0.434625 0.160040
0.201623 0.437453 0.158530
0.413074 0.435499 0.163008
0.477896 0.434001 0.160389
0.484710 0.434644 0.160653
0.169132 0.441342 0.158235
0.839916 0.441033 0.159094
0.268657 0.443036 0.162166
0.496958 0.442319 0.162729
0.834619 0.443664 0.162162
0.171848 0.453853 0.160547
