ply
format ascii 1.0
element vertex 1773
property float x
property float y
property float z
end_header
0.949786 0.334215 0.357864
0.953059 0.333010 0.370206
0.956033 0.331914 0.382633
0.958708 0.330928 0.395138
0.961081 0.330054 0.407711
0.963150 0.329291 0.420345
0.964915 0.328641 0.433032
0.966373 0.328104 0.445762
0.967525 0.327679 0.458528
0.968370 0.327368 0.471322
0.968906 0.327171 0.484134
0.969133 0.327087 0.496957
0.969052 0.327117 0.509782
0.968662 0.327260 0.522601
0.967964 0.327517 0.535404
0.966958 0.327888 0.548184
0.965645 0.328372 0.560933
0.964025 0.328969 0.573641
0.962101 0.329678 0.586301
0.959872 0.330499 0.598905
0.957340 0.331432 0.611443
0.954507 0.332476 0.623908
0.951376 0.333630 0.636291
0.947947 0.334893 0.648585
0.944224 0.336265 0.660780
0.940209 0.337744 0.672871
0.935903 0.339331 0.684847
0.931311 0.341023 0.696702
0.926436 0.342819 0.708427
0.921279 0.344719 0.720015
0.915846 0.346721 0.731459
0.910138 0.348824 0.742750
0.904161 0.351027 0.753881
0.897918 0.353327 0.764846
0.891414 0.355724 0.775636
0.884651 0.358215 0.786245
0.877636 0.360800 0.796665
0.870372 0.363477 0.806890
0.862864 0.366243 0.816914
0.855118 0.369097 0.826728
0.847138 0.372038 0.836328
0.838929 0.375062 0.845707
0.830498 0.378169 0.854858
0.821849 0.381356 0.863776
0.812988 0.384621 0.872454
0.803922 0.387961 0.880887
0.794655 0.391376 0.889070
0.785195 0.394861 0.896997
0.775546 0.398416 0.904662
0.765717 0.402038 0.912062
0.755713 0.405725 0.919190
0.745540 0.409473 0.926042
0.735206 0.413280 0.932614
0.724717 0.417145 0.938902
0.714081 0.421065 0.944900
0.703303 0.425036 0.950606
0.692392 0.429056 0.956015
0.681354 0.433123 0.961125
0.670196 0.437234 0.965931
0.658927 0.441387 0.970430
0.647553 0.445577 0.974620
0.636082 0.449804 0.978498
0.624522 0.454064 0.982061
0.612879 0.458354 0.985307
0.601162 0.462671 0.988233
0.589379 0.467013 0.990838
0.577537 0.471376 0.993120
0.565644 0.475758 0.995078
0.553707 0.480156 0.996710
0.541736 0.484567 0.998016
0.529736 0.488989 0.998993
0.517718 0.493417 0.999642
0.505687 0.497850 0.999963
0.499977 0.499954 0.000000
0.511893 0.495213 0.000164
0.523800 0.490475 0.000658
0.535692 0.485744 0.001480
0.547561 0.481021 0.002630
0.559398 0.476311 0.004107
0.571196 0.471617 0.005910
0.582947 0.466942 0.008039
0.594644 0.462288 0.010491
0.606279 0.457658 0.013265
0.617843 0.453057 0.016359
0.629330 0.448487 0.019772
0.640732 0.443950 0.023501
0.652041 0.439450 0.027543
0.663250 0.434991 0.031896
0.674352 0.430573 0.036557
0.685339 0.426202 0.041523
0.696204 0.421879 0.046790
0.706940 0.417607 0.052356
0.717540 0.413390 0.058216
0.727996 0.409229 0.064367
0.738303 0.405128 0.070804
0.748453 0.401090 0.077524
0.758439 0.397117 0.084522
0.768255 0.393211 0.091793
0.777895 0.389375 0.099333
0.787352 0.385613 0.107137
0.796620 0.381925 0.115198
0.805692 0.378315 0.123513
0.814564 0.374785 0.132076
0.823228 0.371338 0.140881
0.831680 0.367975 0.149922
0.839914 0.364699 0.159194
0.847924 0.361512 0.168689
0.855705 0.358416 0.178403
0.863252 0.355413 0.188328
0.870560 0.352506 0.198458
0.877624 0.349695 0.208787
0.884440 0.346983 0.219308
0.891003 0.344372 0.230012
0.897308 0.341863 0.240895
0.903352 0.339458 0.251948
0.909131 0.337159 0.263164
0.914640 0.334967 0.274537
0.919877 0.332883 0.286057
0.924837 0.330910 0.297718
0.929518 0.329047 0.309513
0.933916 0.327297 0.321432
0.938029 0.325661 0.333469
0.941853 0.324139 0.345616
0.945387 0.322733 0.357864
0.948628 0.321444 0.370206
0.951573 0.320272 0.382633
0.954222 0.319218 0.395138
0.956571 0.318283 0.407711
0.958621 0.317468 0.420345
0.960368 0.316773 0.433032
0.961812 0.316198 0.445762
0.962953 0.315744 0.458528
0.963789 0.315411 0.471322
0.964320 0.315200 0.484134
0.964545 0.315111 0.496957
0.964465 0.315142 0.509782
0.964079 0.315296 0.522601
0.963388 0.315571 0.535404
0.962392 0.315967 0.548184
0.961091 0.316485 0.560933
0.959487 0.317123 0.573641
0.957581 0.317881 0.586301
0.955374 0.318760 0.598905
0.952867 0.319757 0.611443
0.950062 0.320873 0.623908
0.946962 0.322107 0.636291
0.943567 0.323458 0.648585
0.939880 0.324925 0.660780
0.935903 0.326507 0.672871
0.931640 0.328203 0.684847
0.927093 0.330012 0.696702
0.922265 0.331933 0.708427
0.917159 0.333965 0.720015
0.911779 0.336105 0.731459
0.906127 0.338354 0.742750
0.900209 0.340709 0.753881
0.894027 0.343169 0.764846
0.887585 0.345731 0.775636
0.880889 0.348396 0.786245
0.873942 0.351160 0.796665
0.866750 0.354022 0.806890
0.859315 0.356980 0.816914
0.851645 0.360032 0.826728
0.843743 0.363176 0.836328
0.835615 0.366410 0.845707
0.827266 0.369732 0.854858
0.818701 0.373139 0.863776
0.809927 0.376630 0.872454
0.800949 0.380202 0.880887
0.791773 0.383853 0.889070
0.782405 0.387581 0.896997
0.772852 0.391382 0.904662
0.763118 0.395255 0.912062
0.753212 0.399196 0.919190
0.743139 0.403204 0.926042
0.732906 0.407276 0.932614
0.722519 0.411408 0.938902
0.711987 0.415599 0.944900
0.701315 0.419845 0.950606
0.690510 0.424144 0.956015
0.679580 0.428493 0.961125
0.668532 0.432889 0.965931
0.657373 0.437329 0.970430
0.646110 0.441810 0.974620
0.634751 0.446330 0.978498
0.623304 0.450885 0.982061
0.611775 0.455472 0.985307
0.600173 0.460088 0.988233
0.588505 0.464730 0.990838
0.576778 0.469396 0.993120
0.565001 0.474082 0.995078
0.553182 0.478785 0.996710
0.541327 0.483501 0.998016
0.529445 0.488229 0.998993
0.517544 0.492964 0.999642
0.505631 0.497704 0.999963
0.499977 0.499954 0.000000
0.511767 0.494909 0.000164
0.523549 0.489867 0.000658
0.535316 0.484832 0.001480
0.547060 0.479807 0.002630
0.558772 0.474795 0.004107
0.570446 0.469800 0.005910
0.582073 0.464824 0.008039
0.593647 0.459872 0.010491
0.605159 0.454946 0.013265
0.616601 0.450050 0.016359
0.627967 0.445186 0.019772
0.639249 0.440358 0.023501
0.650439 0.435570 0.027543
0.661530 0.430824 0.031896
0.672515 0.426124 0.036557
0.683386 0.421472 0.041523
0.694137 0.416872 0.046790
0.704760 0.412326 0.052356
0.715248 0.407838 0.058216
0.725594 0.403411 0.064367
0.735792 0.399047 0.070804
0.745835 0.394750 0.077524
0.755716 0.390521 0.084522
0.765429 0.386365 0.091793
0.774967 0.382284 0.099333
0.784325 0.378280 0.107137
0.793495 0.374356 0.115198
0.802472 0.370514 0.123513
0.811250 0.366758 0.132076
0.819823 0.363089 0.140881
0.828186 0.359511 0.149922
0.836333 0.356025 0.159194
0.844259 0.352633 0.168689
0.851958 0.349339 0.178403
0.859425 0.346144 0.188328
0.866656 0.343049 0.198458
0.873646 0.340058 0.208787
0.880390 0.337173 0.219308
0.886883 0.334394 0.230012
0.893123 0.331724 0.240895
0.899103 0.329165 0.251948
0.904821 0.326719 0.263164
0.910272 0.324386 0.274537
0.915454 0.322169 0.286057
0.920362 0.320068 0.297718
0.924993 0.318087 0.309513
0.929345 0.316224 0.321432
0.933414 0.314483 0.333469
0.937199 0.312864 0.345616
0.940695 0.311368 0.357864
0.943902 0.309995 0.370206
0.946816 0.308748 0.382633
0.949437 0.307627 0.395138
0.951762 0.306632 0.407711
0.953789 0.305765 0.420345
0.955518 0.305025 0.433032
0.956947 0.304413 0.445762
0.958076 0.303930 0.458528
0.958903 0.303576 0.471322
0.959429 0.303351 0.484134
0.959652 0.303256 0.496957
0.959572 0.303290 0.509782
0.959190 0.303453 0.522601
0.958506 0.303746 0.535404
0.957521 0.304168 0.548184
0.956234 0.304718 0.560933
0.954647 0.305398 0.573641
0.952761 0.306205 0.586301
0.950577 0.307139 0.598905
0.948097 0.308200 0.611443
0.945321 0.309388 0.623908
0.942253 0.310701 0.636291
0.938894 0.312138 0.648585
0.935246 0.313699 0.660780
0.931311 0.315383 0.672871
0.927093 0.317188 0.684847
0.922594 0.319113 0.696702
0.917817 0.321157 0.708427
0.912764 0.323319 0.720015
0.907441 0.325597 0.731459
0.901849 0.327990 0.742750
0.895993 0.330496 0.753881
0.889876 0.333114 0.764846
0.883502 0.335841 0.775636
0.876877 0.338676 0.786245
0.870003 0.341617 0.796665
0.862886 0.344663 0.806890
0.855530 0.347810 0.816914
0.847940 0.351058 0.826728
0.840122 0.354404 0.836328
0.832079 0.357845 0.845707
0.823818 0.361380 0.854858
0.815344 0.365006 0.863776
0.806662 0.368721 0.872454
0.797779 0.372522 0.880887
0.788700 0.376408 0.889070
0.779430 0.380374 0.896997
0.769977 0.384419 0.904662
0.760346 0.388540 0.912062
0.750544 0.392734 0.919190
0.740577 0.396999 0.926042
0.730452 0.401332 0.932614
0.720175 0.405730 0.938902
0.709753 0.410189 0.944900
0.699194 0.414708 0.950606
0.688503 0.419282 0.956015
0.677688 0.423910 0.961125
0.666756 0.428588 0.965931
0.655715 0.433313 0.970430
0.644570 0.438081 0.974620
0.633331 0.442891 0.978498
0.622004 0.447738 0.982061
0.610597 0.452619 0.985307
0.599117 0.457531 0.988233
0.587572 0.462471 0.990838
0.575969 0.467436 0.993120
0.564317 0.472423 0.995078
0.552621 0.477427 0.996710
0.540892 0.482446 0.998016
0.529135 0.487477 0.998993
0.517359 0.492516 0.999642
0.505572 0.497560 0.999963
0.499977 0.499954 0.000000
0.511634 0.494608 0.000164
0.523283 0.489266 0.000658
0.534917 0.483931 0.001480
0.546527 0.478606 0.002630
0.558108 0.473295 0.004107
0.569649 0.468002 0.005910
0.581145 0.462730 0.008039
0.592588 0.457483 0.010491
0.603970 0.452263 0.013265
0.615283 0.447075 0.016359
0.626521 0.441921 0.019772
0.637675 0.436806 0.023501
0.648738 0.431732 0.027543
0.659704 0.426703 0.031896
0.670565 0.421723 0.036557
0.681313 0.416794 0.041523
0.691942 0.411919 0.046790
0.702445 0.407103 0.052356
0.712814 0.402347 0.058216
0.723044 0.397656 0.064367
0.733127 0.393032 0.070804
0.743056 0.388478 0.077524
0.752825 0.383998 0.084522
0.762429 0.379594 0.091793
0.771859 0.375269 0.099333
0.781110 0.371027 0.107137
0.790177 0.366869 0.115198
0.799053 0.362798 0.123513
0.807731 0.358818 0.132076
0.816208 0.354931 0.140881
0.824476 0.351139 0.149922
0.832531 0.347445 0.159194
0.840367 0.343852 0.168689
0.847979 0.340361 0.178403
0.855362 0.336975 0.188328
0.862511 0.333696 0.198458
0.869422 0.330527 0.208787
0.876090 0.327469 0.219308
0.882510 0.324525 0.230012
0.888678 0.321696 0.240895
0.894591 0.318985 0.251948
0.900244 0.316392 0.263164
0.905634 0.313920 0.274537
0.910757 0.311571 0.286057
0.915610 0.309345 0.297718
0.920189 0.307245 0.309513
0.924492 0.305272 0.321432
0.928515 0.303427 0.333469
0.932256 0.301711 0.345616
0.935713 0.300126 0.357864
0.938884 0.298672 0.370206
0.941765 0.297351 0.382633
0.944356 0.296162 0.395138
0.946655 0.295108 0.407711
0.948659 0.294189 0.420345
0.950369 0.293405 0.433032
0.951782 0.292757 0.445762
0.952898 0.292245 0.458528
0.953716 0.291870 0.471322
0.954235 0.291632 0.484134
0.954455 0.291531 0.496957
0.954377 0.291567 0.509782
0.953999 0.291740 0.522601
0.953323 0.292050 0.535404
0.952348 0.292497 0.548184
0.951076 0.293081 0.560933
0.949507 0.293800 0.573641
0.947643 0.294655 0.586301
0.945483 0.295645 0.598905
0.943031 0.296770 0.611443
0.940287 0.298028 0.623908
0.937254 0.299420 0.636291
0.933932 0.300943 0.648585
0.930325 0.302597 0.660780
0.926436 0.304381 0.672871
0.922265 0.306293 0.684847
0.917817 0.308333 0.696702
0.913093 0.310499 0.708427
0.908098 0.312790 0.720015
0.902835 0.315204 0.731459
0.897306 0.317739 0.742750
0.891516 0.320395 0.753881
0.885468 0.323168 0.764846
0.879167 0.326058 0.775636
0.872616 0.329062 0.786245
0.865820 0.332179 0.796665
0.858784 0.335406 0.806890
0.851511 0.338741 0.816914
0.844007 0.342182 0.826728
0.836277 0.345728 0.836328
0.828325 0.349374 0.845707
0.820157 0.353120 0.854858
0.811779 0.356962 0.863776
0.803196 0.360898 0.872454
0.794413 0.364926 0.880887
0.785436 0.369043 0.889070
0.776271 0.373246 0.896997
0.766925 0.377532 0.904662
0.757403 0.381899 0.912062
0.747712 0.386343 0.919190
0.737858 0.390862 0.926042
0.727847 0.395453 0.932614
0.717686 0.400113 0.938902
0.707382 0.404838 0.944900
0.696942 0.409626 0.950606
0.686372 0.414474 0.956015
0.675679 0.419377 0.961125
0.664871 0.424334 0.965931
0.653954 0.429340 0.970430
0.642936 0.434393 0.974620
0.631824 0.439489 0.978498
0.620625 0.444625 0.982061
0.609347 0.449797 0.985307
0.597997 0.455002 0.988233
0.586582 0.460237 0.990838
0.575110 0.465498 0.993120
0.563589 0.470782 0.995078
0.552026 0.476084 0.996710
0.540429 0.481403 0.998016
0.528805 0.486733 0.998993
0.517163 0.492073 0.999642
0.505508 0.497417 0.999963
0.499977 0.499954 0.000000
0.511493 0.494311 0.000164
0.523001 0.488672 0.000658
0.534494 0.483040 0.001480
0.545965 0.477419 0.002630
0.557405 0.471813 0.004107
0.568807 0.466226 0.005910
0.580164 0.460661 0.008039
0.591468 0.455121 0.010491
0.602712 0.449611 0.013265
0.613889 0.444135 0.016359
0.624991 0.438695 0.019772
0.636010 0.433295 0.023501
0.646940 0.427939 0.027543
0.657773 0.422631 0.031896
0.668502 0.417373 0.036557
0.679120 0.412170 0.041523
0.689621 0.407025 0.046790
0.699997 0.401940 0.052356
0.710241 0.396920 0.058216
0.720347 0.391968 0.064367
0.730308 0.387087 0.070804
0.740117 0.382280 0.077524
0.749768 0.377551 0.084522
0.759255 0.372902 0.091793
0.768572 0.368337 0.099333
0.777711 0.363858 0.107137
0.786668 0.359469 0.115198
0.795436 0.355173 0.123513
0.804010 0.350971 0.132076
0.812384 0.346868 0.140881
0.820553 0.342865 0.149922
0.828510 0.338966 0.159194
0.836251 0.335173 0.168689
0.843771 0.331488 0.178403
0.851065 0.327914 0.188328
0.858128 0.324453 0.198458
0.864955 0.321107 0.208787
0.871542 0.317879 0.219308
0.877885 0.314771 0.230012
0.883979 0.311785 0.240895
0.889820 0.308923 0.251948
0.895405 0.306186 0.263164
0.900729 0.303577 0.274537
0.905790 0.301097 0.286057
0.910584 0.298748 0.297718
0.915108 0.296531 0.309513
0.919359 0.294448 0.321432
0.923333 0.292501 0.333469
0.927030 0.290689 0.345616
0.930445 0.289016 0.357864
0.933577 0.287481 0.370206
0.936424 0.286086 0.382633
0.938983 0.284832 0.395138
0.941254 0.283719 0.407711
0.943234 0.282749 0.420345
0.944923 0.281921 0.433032
0.946319 0.281237 0.445762
0.947421 0.280697 0.458528
0.948229 0.280301 0.471322
0.948742 0.280050 0.484134
0.948960 0.279943 0.496957
0.948883 0.279981 0.509782
0.948510 0.280164 0.522601
0.947841 0.280491 0.535404
0.946879 0.280963 0.548184
0.945622 0.281579 0.560933
0.944072 0.282338 0.573641
0.942230 0.283241 0.586301
0.940097 0.284286 0.598905
0.937674 0.285473 0.611443
0.934963 0.286802 0.623908
0.931966 0.288270 0.636291
0.928685 0.289878 0.648585
0.925122 0.291624 0.660780
0.921279 0.293507 0.672871
0.917159 0.295526 0.684847
0.912764 0.297680 0.696702
0.908098 0.299966 0.708427
0.903164 0.302384 0.720015
0.897964 0.304932 0.731459
0.892502 0.307609 0.742750
0.886782 0.310412 0.753881
0.880807 0.313339 0.764846
0.874582 0.316390 0.775636
0.868111 0.319561 0.786245
0.861397 0.322851 0.796665
0.854445 0.326257 0.806890
0.847261 0.329778 0.816914
0.839847 0.333411 0.826728
0.832210 0.337153 0.836328
0.824355 0.341002 0.845707
0.816286 0.344956 0.854858
0.808009 0.349012 0.863776
0.799529 0.353167 0.872454
0.790852 0.357419 0.880887
0.781984 0.361765 0.889070
0.772931 0.366201 0.896997
0.763697 0.370726 0.904662
0.754291 0.375335 0.912062
0.744716 0.380027 0.919190
0.734981 0.384797 0.926042
0.725092 0.389643 0.932614
0.715054 0.394562 0.938902
0.704874 0.399550 0.944900
0.694560 0.404604 0.950606
0.684118 0.409721 0.956015
0.673555 0.414897 0.961125
0.662877 0.420130 0.965931
0.652092 0.425414 0.970430
0.641207 0.430748 0.974620
0.630230 0.436127 0.978498
0.619166 0.441549 0.982061
0.608024 0.447009 0.985307
0.596811 0.452503 0.988233
0.585535 0.458029 0.990838
0.574202 0.463582 0.993120
0.562820 0.469160 0.995078
0.551397 0.474757 0.996710
0.539940 0.480371 0.998016
0.528457 0.485998 0.998993
0.516955 0.491635 0.999642
0.505442 0.497276 0.999963
0.499977 0.499954 0.000000
0.511344 0.494018 0.000164
0.522704 0.488085 0.000658
0.534049 0.482160 0.001480
0.545371 0.476247 0.002630
0.556664 0.470350 0.004107
0.567919 0.464472 0.005910
0.579130 0.458617 0.008039
0.590288 0.452790 0.010491
0.601387 0.446993 0.013265
0.612420 0.441232 0.016359
0.623378 0.435509 0.019772
0.634255 0.429828 0.023501
0.645044 0.424194 0.027543
0.655738 0.418609 0.031896
0.666329 0.413078 0.036557
0.676810 0.407604 0.041523
0.687175 0.402191 0.046790
0.697417 0.396842 0.052356
0.707529 0.391561 0.058216
0.717505 0.386352 0.064367
0.727337 0.381217 0.070804
0.737020 0.376160 0.077524
0.746547 0.371185 0.084522
0.755911 0.366294 0.091793
0.765107 0.361491 0.099333
0.774129 0.356780 0.107137
0.782971 0.352162 0.115198
0.791626 0.347642 0.123513
0.800089 0.343222 0.132076
0.808355 0.338906 0.140881
0.816418 0.334695 0.149922
0.824273 0.330593 0.159194
0.831914 0.326602 0.168689
0.839337 0.322725 0.178403
0.846537 0.318965 0.188328
0.853509 0.315324 0.198458
0.860248 0.311805 0.208787
0.866750 0.308409 0.219308
0.873011 0.305140 0.230012
0.879026 0.301998 0.240895
0.884792 0.298987 0.251948
0.890305 0.296108 0.263164
0.895561 0.293363 0.274537
0.900556 0.290754 0.286057
0.905288 0.288283 0.297718
0.909754 0.285951 0.309513
0.913950 0.283760 0.321432
0.917873 0.281711 0.333469
0.921522 0.279805 0.345616
0.924893 0.278045 0.357864
0.927985 0.276430 0.370206
0.930795 0.274962 0.382633
0.933321 0.273643 0.395138
0.935563 0.272472 0.407711
0.937518 0.271451 0.420345
0.939184 0.270581 0.433032
0.940562 0.269861 0.445762
0.941651 0.269293 0.458528
0.942448 0.268876 0.471322
0.942955 0.268612 0.484134
0.943170 0.268500 0.496957
0.943093 0.268540 0.509782
0.942725 0.268732 0.522601
0.942065 0.269076 0.535404
0.941115 0.269573 0.548184
0.939874 0.270221 0.560933
0.938344 0.271020 0.573641
0.936526 0.271969 0.586301
0.934420 0.273069 0.598905
0.932029 0.274318 0.611443
0.929353 0.275715 0.623908
0.926395 0.277260 0.636291
0.923156 0.278952 0.648585
0.919639 0.280788 0.660780
0.915846 0.282769 0.672871
0.911779 0.284893 0.684847
0.907441 0.287159 0.696702
0.902835 0.289564 0.708427
0.897964 0.292108 0.720015
0.892831 0.294789 0.731459
0.887439 0.297604 0.742750
0.881793 0.300553 0.753881
0.875896 0.303633 0.764846
0.869751 0.306842 0.775636
0.863363 0.310178 0.786245
0.856736 0.313639 0.796665
0.849874 0.317223 0.806890
0.842782 0.320927 0.816914
0.835464 0.324748 0.826728
0.827925 0.328685 0.836328
0.820171 0.332735 0.845707
0.812206 0.336894 0.854858
0.804036 0.341161 0.863776
0.795666 0.345532 0.872454
0.787101 0.350005 0.880887
0.778347 0.354577 0.889070
0.769410 0.359244 0.896997
0.760296 0.364004 0.904662
0.751011 0.368853 0.912062
0.741560 0.373789 0.919190
0.731950 0.378807 0.926042
0.722188 0.383906 0.932614
0.712280 0.389080 0.938902
0.702232 0.394328 0.944900
0.692051 0.399645 0.950606
0.681743 0.405028 0.956015
0.671316 0.410473 0.961125
0.660776 0.415978 0.965931
0.650130 0.421537 0.970430
0.639386 0.427149 0.974620
0.628550 0.432808 0.978498
0.617629 0.438511 0.982061
0.606631 0.444255 0.985307
0.595563 0.450035 0.988233
0.584431 0.455848 0.990838
0.573245 0.461691 0.993120
0.562010 0.467558 0.995078
0.550734 0.473447 0.996710
0.539425 0.479353 0.998016
0.528089 0.485272 0.998993
0.516736 0.491202 0.999642
0.505371 0.497137 0.999963
0.499977 0.499954 0.000000
0.511188 0.493728 0.000164
0.522392 0.487506 0.000658
0.533581 0.481292 0.001480
0.544748 0.475091 0.002630
0.555886 0.468905 0.004107
0.566987 0.462741 0.005910
0.578044 0.456600 0.008039
0.589049 0.450489 0.010491
0.599996 0.444410 0.013265
0.610877 0.438367 0.016359
0.621685 0.432365 0.019772
0.632413 0.426407 0.023501
0.643053 0.420498 0.027543
0.653600 0.414641 0.031896
0.664046 0.408840 0.036557
0.674383 0.403099 0.041523
0.684606 0.397422 0.046790
0.694708 0.391812 0.052356
0.704681 0.386274 0.058216
0.714519 0.380810 0.064367
0.724217 0.375424 0.070804
0.733767 0.370121 0.077524
0.743163 0.364903 0.084522
0.752399 0.359774 0.091793
0.761469 0.354737 0.099333
0.770367 0.349795 0.107137
0.779087 0.344953 0.115198
0.787623 0.340212 0.123513
0.795971 0.335577 0.132076
0.804123 0.331049 0.140881
0.812075 0.326633 0.149922
0.819822 0.322331 0.159194
0.827359 0.318145 0.168689
0.834680 0.314080 0.178403
0.841781 0.310136 0.188328
0.848657 0.306318 0.198458
0.855304 0.302627 0.208787
0.861716 0.299065 0.219308
0.867891 0.295636 0.230012
0.873824 0.292341 0.240895
0.879511 0.289183 0.251948
0.884948 0.286164 0.263164
0.890132 0.283285 0.274537
0.895059 0.280549 0.286057
0.899726 0.277957 0.297718
0.904130 0.275511 0.309513
0.908269 0.273213 0.321432
0.912138 0.271064 0.333469
0.915737 0.269066 0.345616
0.919062 0.267219 0.357864
0.922111 0.265526 0.370206
0.924882 0.263987 0.382633
0.927374 0.262603 0.395138
0.929585 0.261375 0.407711
0.931513 0.260305 0.420345
0.933157 0.259391 0.433032
0.934516 0.258637 0.445762
0.935589 0.258041 0.458528
0.936376 0.257604 0.471322
0.936875 0.257326 0.484134
0.937087 0.257209 0.496957
0.937012 0.257251 0.509782
0.936649 0.257452 0.522601
0.935998 0.257814 0.535404
0.935061 0.258334 0.548184
0.933837 0.259014 0.560933
0.932328 0.259852 0.573641
0.930535 0.260848 0.586301
0.928458 0.262001 0.598905
0.926100 0.263311 0.611443
0.923461 0.264776 0.623908
0.920543 0.266397 0.636291
0.917349 0.268171 0.648585
0.913880 0.270097 0.660780
0.910138 0.272175 0.672871
0.906127 0.274402 0.684847
0.901849 0.276778 0.696702
0.897306 0.279301 0.708427
0.892502 0.281969 0.720015
0.887439 0.284780 0.731459
0.882122 0.287733 0.742750
0.876553 0.290826 0.753881
0.870737 0.294056 0.764846
0.864676 0.297422 0.775636
0.858376 0.300920 0.786245
0.851840 0.304550 0.796665
0.845072 0.308309 0.806890
0.838077 0.312193 0.816914
0.830860 0.316201 0.826728
0.823425 0.320330 0.836328
0.815777 0.324577 0.845707
0.807922 0.328940 0.854858
0.799863 0.333415 0.863776
0.791608 0.337999 0.872454
0.783161 0.342691 0.880887
0.774527 0.347485 0.889070
0.765713 0.352380 0.896997
0.756724 0.357372 0.904662
0.747566 0.362458 0.912062
0.738245 0.367634 0.919190
0.728767 0.372898 0.926042
0.719139 0.378245 0.932614
0.709366 0.383672 0.938902
0.699456 0.389175 0.944900
0.689415 0.394752 0.950606
0.679249 0.400397 0.956015
0.668965 0.406108 0.961125
0.658569 0.411881 0.965931
0.648070 0.417712 0.970430
0.637473 0.423597 0.974620
0.626785 0.429532 0.978498
0.616014 0.435514 0.982061
0.605167 0.441538 0.985307
0.594251 0.447600 0.988233
0.583272 0.453697 0.990838
0.572239 0.459824 0.993120
0.561158 0.465978 0.995078
0.550037 0.472154 0.996710
0.538883 0.478348 0.998016
0.527704 0.484556 0.998993
0.516506 0.490775 0.999642
0.505297 0.497000 0.999963
0.499977 0.499954 0.000000
0.511025 0.493442 0.000164
0.522066 0.486935 0.000658
0.533092 0.480436 0.001480
0.544096 0.473950 0.002630
0.555071 0.467482 0.004107
0.566010 0.461034 0.005910
0.576906 0.454612 0.008039
0.587751 0.448220 0.010491
0.598538 0.441862 0.013265
0.609261 0.435543 0.016359
0.619911 0.429265 0.019772
0.630483 0.423035 0.023501
0.640968 0.416854 0.027543
0.651361 0.410729 0.031896
0.661655 0.404662 0.036557
0.671842 0.398658 0.041523
0.681916 0.392720 0.046790
0.691870 0.386853 0.052356
0.701698 0.381061 0.058216
0.711393 0.375346 0.064367
0.720949 0.369714 0.070804
0.730360 0.364167 0.077524
0.739619 0.358710 0.084522
0.748721 0.353346 0.091793
0.757658 0.348078 0.099333
0.766427 0.342910 0.107137
0.775020 0.337845 0.115198
0.783432 0.332887 0.123513
0.791657 0.328039 0.132076
0.799691 0.323304 0.140881
0.807527 0.318685 0.149922
0.815161 0.314186 0.159194
0.822588 0.309809 0.168689
0.829803 0.305556 0.178403
0.836800 0.301432 0.188328
0.843576 0.297438 0.198458
0.850126 0.293578 0.208787
0.856445 0.289853 0.219308
0.862530 0.286267 0.230012
0.868376 0.282821 0.240895
0.873980 0.279518 0.251948
0.879338 0.276360 0.263164
0.884446 0.273350 0.274537
0.889302 0.270488 0.286057
0.893901 0.267777 0.297718
0.898241 0.265219 0.309513
0.902319 0.262816 0.321432
0.906132 0.260568 0.333469
0.909678 0.258478 0.345616
0.912955 0.256547 0.357864
0.915959 0.254776 0.370206
0.918690 0.253166 0.382633
0.921146 0.251719 0.395138
0.923324 0.250435 0.407711
0.925224 0.249315 0.420345
0.926844 0.248360 0.433032
0.928184 0.247571 0.445762
0.929241 0.246948 0.458528
0.930016 0.246491 0.471322
0.930509 0.246201 0.484134
0.930718 0.246078 0.496957
0.930643 0.246121 0.509782
0.930285 0.246332 0.522601
0.929644 0.246710 0.535404
0.928721 0.247254 0.548184
0.927515 0.247965 0.560933
0.926028 0.248842 0.573641
0.924261 0.249883 0.586301
0.922214 0.251089 0.598905
0.919890 0.252459 0.611443
0.917289 0.253992 0.623908
0.914414 0.255687 0.636291
0.911266 0.257542 0.648585
0.907848 0.259557 0.660780
0.904161 0.261730 0.672871
0.900209 0.264059 0.684847
0.895993 0.266544 0.696702
0.891516 0.269183 0.708427
0.886782 0.271973 0.720015
0.881793 0.274913 0.731459
0.876553 0.278002 0.742750
0.871066 0.281236 0.753881
0.865334 0.284614 0.764846
0.859362 0.288134 0.775636
0.853153 0.291794 0.786245
0.846712 0.295590 0.796665
0.840043 0.299521 0.806890
0.833150 0.303583 0.816914
0.826038 0.307775 0.826728
0.818711 0.312093 0.836328
0.811175 0.316535 0.845707
0.803434 0.321098 0.854858
0.795493 0.325778 0.863776
0.787358 0.330573 0.872454
0.779034 0.335479 0.880887
0.770526 0.340494 0.889070
0.761840 0.345613 0.896997
0.752982 0.350834 0.904662
0.743958 0.356153 0.912062
0.734772 0.361567 0.919190
0.725433 0.367071 0.926042
0.715945 0.372663 0.932614
0.706315 0.378339 0.938902
0.696549 0.384095 0.944900
0.686654 0.389927 0.950606
0.676636 0.395832 0.956015
0.666502 0.401805 0.961125
0.656258 0.407843 0.965931
0.645912 0.413941 0.970430
0.635469 0.420096 0.974620
0.624937 0.426303 0.978498
0.614324 0.432559 0.982061
0.603634 0.438859 0.985307
0.592877 0.445199 0.988233
0.582059 0.451576 0.990838
0.571186 0.457984 0.993120
0.560267 0.464420 0.995078
0.549308 0.470879 0.996710
0.538316 0.477357 0.998016
0.527300 0.483850 0.998993
0.516265 0.490354 0.999642
0.505220 0.496864 0.999963
0.499977 0.499954 0.000000
0.510854 0.493161 0.000164
0.521724 0.486373 0.000658
0.532580 0.479593 0.001480
0.543415 0.472827 0.002630
0.554220 0.466079 0.004107
0.564990 0.459353 0.005910
0.575718 0.452654 0.008039
0.586395 0.445986 0.010491
0.597016 0.439354 0.013265
0.607573 0.432761 0.016359
0.618059 0.426213 0.019772
0.628467 0.419713 0.023501
0.638791 0.413265 0.027543
0.649023 0.406875 0.031896
0.659157 0.400547 0.036557
0.669187 0.394283 0.041523
0.679105 0.388089 0.046790
0.688906 0.381969 0.052356
0.698582 0.375926 0.058216
0.708127 0.369965 0.064367
0.717536 0.364089 0.070804
0.726801 0.358303 0.077524
0.735918 0.352610 0.084522
0.744878 0.347014 0.091793
0.753678 0.341519 0.099333
0.762311 0.336128 0.107137
0.770771 0.330844 0.115198
0.779053 0.325672 0.123513
0.787152 0.320615 0.132076
0.795062 0.315675 0.140881
0.802777 0.310857 0.149922
0.810293 0.306163 0.159194
0.817605 0.301597 0.168689
0.824708 0.297161 0.178403
0.831597 0.292859 0.188328
0.838269 0.288692 0.198458
0.844717 0.284665 0.208787
0.850939 0.280780 0.219308
0.856930 0.277038 0.230012
0.862686 0.273444 0.240895
0.868203 0.269998 0.251948
0.873479 0.266704 0.263164
0.878508 0.263563 0.274537
0.883288 0.260578 0.286057
0.887816 0.257750 0.297718
0.892089 0.255082 0.309513
0.896104 0.252574 0.321432
0.899859 0.250230 0.333469
0.903350 0.248049 0.345616
0.906576 0.246035 0.357864
0.909534 0.244187 0.370206
0.912223 0.242508 0.382633
0.914641 0.240998 0.395138
0.916785 0.239659 0.407711
0.918656 0.238491 0.420345
0.920251 0.237495 0.433032
0.921570 0.236671 0.445762
0.922611 0.236021 0.458528
0.923374 0.235544 0.471322
0.923859 0.235242 0.484134
0.924064 0.235113 0.496957
0.923991 0.235159 0.509782
0.923639 0.235379 0.522601
0.923008 0.235773 0.535404
0.922098 0.236341 0.548184
0.920911 0.237082 0.560933
0.919447 0.237997 0.573641
0.917707 0.239083 0.586301
0.915692 0.240342 0.598905
0.913404 0.241771 0.611443
0.910844 0.243370 0.623908
0.908013 0.245137 0.636291
0.904914 0.247073 0.648585
0.901548 0.249175 0.660780
0.897918 0.251441 0.672871
0.894027 0.253872 0.684847
0.889876 0.256464 0.696702
0.885468 0.259216 0.708427
0.880807 0.262127 0.720015
0.875896 0.265194 0.731459
0.870737 0.268416 0.742750
0.865334 0.271790 0.753881
0.859691 0.275314 0.764846
0.853811 0.278986 0.775636
0.847698 0.282804 0.786245
0.841356 0.286764 0.796665
0.834790 0.290865 0.806890
0.828004 0.295103 0.816914
0.821002 0.299476 0.826728
0.813788 0.303980 0.836328
0.806368 0.308614 0.845707
0.798747 0.313374 0.854858
0.790929 0.318256 0.863776
0.782919 0.323258 0.872454
0.774724 0.328376 0.880887
0.766347 0.333607 0.889070
0.757796 0.338947 0.896997
0.749074 0.344394 0.904662
0.740189 0.349943 0.912062
0.731146 0.355590 0.919190
0.721951 0.361333 0.926042
0.712609 0.367166 0.932614
0.703128 0.373087 0.938902
0.693513 0.379092 0.944900
0.683771 0.385176 0.950606
0.673907 0.391335 0.956015
0.663930 0.397566 0.961125
0.653844 0.403865 0.965931
0.643658 0.410226 0.970430
0.633376 0.416647 0.974620
0.623007 0.423122 0.978498
0.612557 0.429648 0.982061
0.602033 0.436220 0.985307
0.591442 0.442834 0.988233
0.580791 0.449486 0.990838
0.570086 0.456171 0.993120
0.559335 0.462885 0.995078
0.548546 0.469623 0.996710
0.537724 0.476381 0.998016
0.526878 0.483155 0.998993
0.516013 0.489939 0.999642
0.505139 0.496731 0.999963
0.499977 0.499954 0.000000
0.510676 0.492884 0.000164
0.521369 0.485820 0.000658
0.532047 0.478764 0.001480
0.542705 0.471722 0.002630
0.553334 0.464699 0.004107
0.563928 0.457699 0.005910
0.574480 0.450727 0.008039
0.584983 0.443787 0.010491
0.595430 0.436885 0.013265
0.605814 0.430023 0.016359
0.616128 0.423208 0.019772
0.626367 0.416443 0.023501
0.636522 0.409734 0.027543
0.646587 0.403083 0.031896
0.656555 0.396497 0.036557
0.666421 0.389978 0.041523
0.676177 0.383532 0.046790
0.685818 0.377162 0.052356
0.695336 0.370873 0.058216
0.704725 0.364669 0.064367
0.713980 0.358554 0.070804
0.723094 0.352532 0.077524
0.732061 0.346607 0.084522
0.740875 0.340783 0.091793
0.749531 0.335064 0.099333
0.758023 0.329453 0.107137
0.766345 0.323954 0.115198
0.774492 0.318572 0.123513
0.782458 0.313308 0.132076
0.790238 0.308167 0.140881
0.797827 0.303153 0.149922
0.805221 0.298268 0.159194
0.812413 0.293515 0.168689
0.819400 0.288899 0.178403
0.826177 0.284421 0.188328
0.832739 0.280085 0.198458
0.839082 0.275894 0.208787
0.845202 0.271850 0.219308
0.851095 0.267957 0.230012
0.856757 0.264216 0.240895
0.862184 0.260630 0.251948
0.867373 0.257201 0.263164
0.872320 0.253932 0.274537
0.877023 0.250825 0.286057
0.881477 0.247882 0.297718
0.885680 0.245105 0.309513
0.889629 0.242496 0.321432
0.893322 0.240056 0.333469
0.896756 0.237787 0.345616
0.899929 0.235690 0.357864
0.902839 0.233767 0.370206
0.905484 0.232020 0.382633
0.907862 0.230448 0.395138
0.909972 0.229054 0.407711
0.911812 0.227839 0.420345
0.913381 0.226802 0.433032
0.914678 0.225945 0.445762
0.915703 0.225268 0.458528
0.916453 0.224772 0.471322
0.916930 0.224457 0.484134
0.917132 0.224323 0.496957
0.917060 0.224371 0.509782
0.916714 0.224600 0.522601
0.916093 0.225010 0.535404
0.915198 0.225601 0.548184
0.914031 0.226373 0.560933
0.912591 0.227324 0.573641
0.910879 0.228455 0.586301
0.908897 0.229765 0.598905
0.906646 0.231252 0.611443
0.904128 0.232916 0.623908
0.901343 0.234756 0.636291
0.898295 0.236770 0.648585
0.894984 0.238958 0.660780
0.891414 0.241317 0.672871
0.887585 0.243846 0.684847
0.883502 0.246544 0.696702
0.879167 0.249408 0.708427
0.874582 0.252438 0.720015
0.869751 0.255630 0.731459
0.864676 0.258983 0.742750
0.859362 0.262495 0.753881
0.853811 0.266162 0.764846
0.848027 0.269984 0.775636
0.842014 0.273957 0.786245
0.835776 0.278078 0.796665
0.829317 0.282346 0.806890
0.822642 0.286757 0.816914
0.815754 0.291308 0.826728
0.808659 0.295996 0.836328
0.801360 0.300819 0.845707
0.793863 0.305772 0.854858
0.786173 0.310853 0.863776
0.778294 0.316059 0.872454
0.770233 0.321386 0.880887
0.761993 0.326830 0.889070
0.753581 0.332388 0.896997
0.745003 0.338056 0.904662
0.736263 0.343831 0.912062
0.727367 0.349709 0.919190
0.718322 0.355685 0.926042
0.709133 0.361756 0.932614
0.699807 0.367918 0.938902
0.690349 0.374168 0.944900
0.680766 0.380499 0.950606
0.671064 0.386910 0.956015
0.661250 0.393395 0.961125
0.651329 0.399950 0.965931
0.641309 0.406570 0.970430
0.631196 0.413253 0.974620
0.620996 0.419992 0.978498
0.610717 0.426784 0.982061
0.600365 0.433624 0.985307
0.589947 0.440507 0.988233
0.579470 0.447430 0.990838
0.568940 0.454387 0.993120
0.558365 0.461375 0.995078
0.547752 0.468387 0.996710
0.537107 0.475421 0.998016
0.526438 0.482470 0.998993
0.515751 0.489531 0.999642
0.505054 0.496599 0.999963
0.499977 0.499954 0.000000
0.510492 0.492612 0.000164
0.520999 0.485276 0.000658
0.531493 0.477948 0.001480
0.541966 0.470636 0.002630
0.552412 0.463342 0.004107
0.562823 0.456073 0.005910
0.573193 0.448833 0.008039
0.583514 0.441626 0.010491
0.593781 0.434457 0.013265
0.603985 0.427332 0.016359
0.614122 0.420254 0.019772
0.624183 0.413229 0.023501
0.634163 0.406261 0.027543
0.644054 0.399355 0.031896
0.653850 0.392515 0.036557
0.663546 0.385745 0.041523
0.673133 0.379051 0.046790
0.682607 0.372436 0.052356
0.691961 0.365905 0.058216
0.701188 0.359462 0.064367
0.710283 0.353112 0.070804
0.719239 0.346858 0.077524
0.728051 0.340705 0.084522
0.736714 0.334657 0.091793
0.745220 0.328717 0.099333
0.753565 0.322891 0.107137
0.761743 0.317180 0.115198
0.769749 0.311590 0.123513
0.777578 0.306124 0.132076
0.785224 0.300786 0.140881
0.792682 0.295578 0.149922
0.799947 0.290505 0.159194
0.807016 0.285570 0.168689
0.813882 0.280776 0.178403
0.820541 0.276126 0.188328
0.826990 0.271623 0.198458
0.833224 0.267270 0.208787
0.839238 0.263071 0.219308
0.845029 0.259027 0.230012
0.850593 0.255142 0.240895
0.855927 0.251418 0.251948
0.861026 0.247858 0.263164
0.865888 0.244463 0.274537
0.870509 0.241237 0.286057
0.874886 0.238181 0.297718
0.879016 0.235297 0.309513
0.882898 0.232587 0.321432
0.886527 0.230053 0.333469
0.889902 0.227696 0.345616
0.893020 0.225519 0.357864
0.895880 0.223522 0.370206
0.898479 0.221707 0.382633
0.900816 0.220075 0.395138
0.902889 0.218628 0.407711
0.904697 0.217365 0.420345
0.906239 0.216289 0.433032
0.907514 0.215399 0.445762
0.908521 0.214696 0.458528
0.909258 0.214181 0.471322
0.909727 0.213854 0.484134
0.909926 0.213715 0.496957
0.909855 0.213764 0.509782
0.909514 0.214002 0.522601
0.908904 0.214428 0.535404
0.908025 0.215042 0.548184
0.906878 0.215843 0.560933
0.905462 0.216831 0.573641
0.903780 0.218006 0.586301
0.901833 0.219366 0.598905
0.899621 0.220910 0.611443
0.897146 0.222638 0.623908
0.894409 0.224549 0.636291
0.891413 0.226641 0.648585
0.888160 0.228912 0.660780
0.884651 0.231362 0.672871
0.880889 0.233989 0.684847
0.876877 0.236791 0.696702
0.872616 0.239765 0.708427
0.868111 0.242911 0.720015
0.863363 0.246226 0.731459
0.858376 0.249708 0.742750
0.853153 0.253355 0.753881
0.847698 0.257164 0.764846
0.842014 0.261133 0.775636
0.836105 0.265259 0.786245
0.829975 0.269539 0.796665
0.823628 0.273971 0.806890
0.817068 0.278551 0.816914
0.810299 0.283277 0.826728
0.803326 0.288146 0.836328
0.796153 0.293154 0.845707
0.788786 0.298298 0.854858
0.781229 0.303575 0.863776
0.773486 0.308981 0.872454
0.765564 0.314513 0.880887
0.757467 0.320167 0.889070
0.749200 0.325938 0.896997
0.740770 0.331825 0.904662
0.732181 0.337822 0.912062
0.723439 0.343926 0.919190
0.714550 0.350132 0.926042
0.705520 0.356437 0.932614
0.696355 0.362837 0.938902
0.687061 0.369326 0.944900
0.677643 0.375902 0.950606
0.668109 0.382559 0.956015
0.658464 0.389293 0.961125
0.648715 0.396101 0.965931
0.638867 0.402976 0.970430
0.628929 0.409916 0.974620
0.618906 0.416914 0.978498
0.608804 0.423968 0.982061
0.598631 0.431071 0.985307
0.588393 0.438219 0.988233
0.578096 0.445409 0.990838
0.567749 0.452634 0.993120
0.557357 0.459890 0.995078
0.546927 0.467172 0.996710
0.536466 0.474476 0.998016
0.525981 0.481797 0.998993
0.515479 0.489130 0.999642
0.504966 0.496470 0.999963
0.499977 0.499954 0.000000
0.510300 0.492345 0.000164
0.520616 0.484741 0.000658
0.530918 0.477147 0.001480
0.541201 0.469568 0.002630
0.551456 0.462009 0.004107
0.561677 0.454476 0.005910
0.571857 0.446972 0.008039
0.581991 0.439502 0.010491
0.592070 0.432073 0.013265
0.602089 0.424688 0.016359
0.612040 0.417353 0.019772
0.621918 0.410072 0.023501
0.631716 0.402850 0.027543
0.641426 0.395693 0.031896
0.651044 0.388603 0.036557
0.660563 0.381587 0.041523
0.669975 0.374649 0.046790
0.679276 0.367794 0.052356
0.688459 0.361025 0.058216
0.697518 0.354348 0.064367
0.706447 0.347766 0.070804
0.715240 0.341285 0.077524
0.723892 0.334908 0.084522
0.732396 0.328639 0.091793
0.740747 0.322484 0.099333
0.748940 0.316445 0.107137
0.756969 0.310527 0.115198
0.764829 0.304733 0.123513
0.772515 0.299068 0.132076
0.780021 0.293535 0.140881
0.787344 0.288138 0.149922
0.794477 0.282880 0.159194
0.801416 0.277765 0.168689
0.808157 0.272797 0.178403
0.814695 0.267977 0.188328
0.821026 0.263311 0.198458
0.827146 0.258800 0.208787
0.833051 0.254447 0.219308
0.838737 0.250257 0.230012
0.844199 0.246230 0.240895
0.849435 0.242371 0.251948
0.854442 0.238681 0.263164
0.859215 0.235162 0.274537
0.863751 0.231818 0.286057
0.868049 0.228651 0.297718
0.872104 0.225662 0.309513
0.875914 0.222853 0.321432
0.879477 0.220227 0.333469
0.882790 0.217785 0.345616
0.885852 0.215528 0.357864
0.888659 0.213459 0.370206
0.891211 0.211578 0.382633
0.893506 0.209887 0.395138
0.895541 0.208386 0.407711
0.897316 0.207078 0.420345
0.898830 0.205962 0.433032
0.900082 0.205040 0.445762
0.901070 0.204311 0.458528
0.901794 0.203777 0.471322
0.902254 0.203438 0.484134
0.902449 0.203295 0.496957
0.902380 0.203346 0.509782
0.902045 0.203592 0.522601
0.901446 0.204034 0.535404
0.900583 0.204670 0.548184
0.899457 0.205500 0.560933
0.898067 0.206524 0.573641
0.896416 0.207742 0.586301
0.894504 0.209151 0.598905
0.892332 0.210752 0.611443
0.889902 0.212543 0.623908
0.887216 0.214523 0.636291
0.884275 0.216691 0.648585
0.881081 0.219045 0.660780
0.877636 0.221584 0.672871
0.873942 0.224307 0.684847
0.870003 0.227210 0.696702
0.865820 0.230293 0.708427
0.861397 0.233554 0.720015
0.856736 0.236990 0.731459
0.851840 0.240599 0.742750
0.846712 0.244378 0.753881
0.841356 0.248326 0.764846
0.835776 0.252439 0.775636
0.829975 0.256715 0.786245
0.823957 0.261151 0.796665
0.817725 0.265744 0.806890
0.811285 0.270491 0.816914
0.804639 0.275389 0.826728
0.797794 0.280435 0.836328
0.790752 0.285626 0.845707
0.783519 0.290957 0.854858
0.776099 0.296426 0.863776
0.768498 0.302029 0.872454
0.760720 0.307762 0.880887
0.752771 0.313622 0.889070
0.744655 0.319604 0.896997
0.736378 0.325704 0.904662
0.727946 0.331920 0.912062
0.719363 0.338246 0.919190
0.710637 0.344678 0.926042
0.701772 0.351213 0.932614
0.692774 0.357845 0.938902
0.683649 0.364571 0.944900
0.674403 0.371386 0.950606
0.665042 0.378285 0.956015
0.655573 0.385265 0.961125
0.646002 0.392320 0.965931
0.636334 0.399446 0.970430
0.626577 0.406638 0.974620
0.616737 0.413891 0.978498
0.606819 0.421201 0.982061
0.596832 0.428563 0.985307
0.586780 0.435972 0.988233
0.576672 0.443423 0.990838
0.566513 0.450911 0.993120
0.556310 0.458431 0.995078
0.546070 0.465979 0.996710
0.535800 0.473549 0.998016
0.525506 0.481136 0.998993
0.515196 0.488736 0.999642
0.504875 0.496343 0.999963
0.499977 0.499954 0.000000
0.510101 0.492083 0.000164
0.520219 0.484217 0.000658
0.530323 0.476361 0.001480
0.540408 0.468521 0.002630
0.550465 0.460702 0.004107
0.560490 0.452908 0.005910
0.570475 0.445145 0.008039
0.580413 0.437419 0.010491
0.590299 0.429733 0.013265
0.600125 0.422094 0.016359
0.609885 0.414506 0.019772
0.619573 0.406974 0.023501
0.629182 0.399504 0.027543
0.638706 0.392099 0.031896
0.648139 0.384765 0.036557
0.657474 0.377508 0.041523
0.666706 0.370330 0.046790
0.675828 0.363238 0.052356
0.684834 0.356236 0.058216
0.693719 0.349329 0.064367
0.702476 0.342521 0.070804
0.711100 0.335816 0.077524
0.719585 0.329219 0.084522
0.727926 0.322735 0.091793
0.736116 0.316367 0.099333
0.744152 0.310120 0.107137
0.752026 0.303998 0.115198
0.759735 0.298004 0.123513
0.767273 0.292144 0.132076
0.774635 0.286420 0.140881
0.781816 0.280837 0.149922
0.788812 0.275398 0.159194
0.795618 0.270107 0.168689
0.802229 0.264967 0.178403
0.808642 0.259982 0.188328
0.814851 0.255154 0.198458
0.820854 0.250488 0.208787
0.826645 0.245985 0.219308
0.832221 0.241650 0.230012
0.837578 0.237485 0.240895
0.842714 0.233492 0.251948
0.847624 0.229675 0.263164
0.852305 0.226036 0.274537
0.856754 0.222577 0.286057
0.860969 0.219300 0.297718
0.864946 0.216208 0.309513
0.868683 0.213302 0.321432
0.872178 0.210586 0.333469
0.875427 0.208059 0.345616
0.878430 0.205725 0.357864
0.881184 0.203584 0.370206
0.883686 0.201638 0.382633
0.885937 0.199889 0.395138
0.887933 0.198337 0.407711
0.889674 0.196983 0.420345
0.891159 0.195829 0.433032
0.892386 0.194875 0.445762
0.893355 0.194121 0.458528
0.894066 0.193569 0.471322
0.894517 0.193218 0.484134
0.894708 0.193069 0.496957
0.894640 0.193122 0.509782
0.894312 0.193377 0.522601
0.893725 0.193834 0.535404
0.892878 0.194492 0.548184
0.891773 0.195351 0.560933
0.890411 0.196411 0.573641
0.888791 0.197670 0.586301
0.886916 0.199128 0.598905
0.884786 0.200784 0.611443
0.882402 0.202636 0.623908
0.879768 0.204685 0.636291
0.876883 0.206928 0.648585
0.873750 0.209363 0.660780
0.870372 0.211990 0.672871
0.866750 0.214806 0.684847
0.862886 0.217810 0.696702
0.858784 0.220999 0.708427
0.854445 0.224372 0.720015
0.849874 0.227926 0.731459
0.845072 0.231659 0.742750
0.840043 0.235569 0.753881
0.834790 0.239653 0.764846
0.829317 0.243907 0.775636
0.823628 0.248331 0.786245
0.817725 0.252920 0.796665
0.811614 0.257671 0.806890
0.805297 0.262582 0.816914
0.798780 0.267649 0.826728
0.792065 0.272869 0.836328
0.785159 0.278238 0.845707
0.778065 0.283754 0.854858
0.770788 0.289411 0.863776
0.763333 0.295207 0.872454
0.755705 0.301138 0.880887
0.747908 0.307199 0.889070
0.739949 0.313387 0.896997
0.731831 0.319698 0.904662
0.723561 0.326128 0.912062
0.715144 0.332672 0.919190
0.706585 0.339326 0.926042
0.697890 0.346086 0.932614
0.689065 0.352947 0.938902
0.680116 0.359905 0.944900
0.671048 0.366954 0.950606
0.661868 0.374092 0.956015
0.652581 0.381312 0.961125
0.643193 0.388610 0.965931
0.633712 0.395982 0.970430
0.624142 0.403422 0.974620
0.614491 0.410925 0.978498
0.604764 0.418487 0.982061
0.594969 0.426102 0.985307
0.585111 0.433767 0.988233
0.575197 0.441474 0.990838
0.565233 0.449221 0.993120
0.555227 0.457000 0.995078
0.545184 0.464808 0.996710
0.535111 0.472639 0.998016
0.525015 0.480488 0.998993
0.514903 0.488350 0.999642
0.504781 0.496219 0.999963
0.499977 0.499954 0.000000
0.509896 0.491826 0.000164
0.519809 0.483703 0.000658
0.529708 0.475591 0.001480
0.539588 0.467494 0.002630
0.549442 0.459420 0.004107
0.559263 0.451371 0.005910
0.569046 0.443355 0.008039
0.578783 0.435376 0.010491
0.588468 0.427440 0.013265
0.598095 0.419551 0.016359
0.607657 0.411715 0.019772
0.617148 0.403937 0.023501
0.626563 0.396223 0.027543
0.635894 0.388576 0.031896
0.645135 0.381003 0.036557
0.654282 0.373508 0.041523
0.663326 0.366097 0.046790
0.672263 0.358773 0.052356
0.681087 0.351542 0.058216
0.689792 0.344409 0.064367
0.698372 0.337379 0.070804
0.706821 0.330455 0.077524
0.715134 0.323643 0.084522
0.723305 0.316947 0.091793
0.731330 0.310371 0.099333
0.739202 0.303920 0.107137
0.746917 0.297598 0.115198
0.754470 0.291409 0.123513
0.761855 0.285357 0.132076
0.769068 0.279446 0.140881
0.776104 0.273681 0.149922
0.782958 0.268064 0.159194
0.789626 0.262600 0.168689
0.796103 0.257292 0.178403
0.802385 0.252144 0.188328
0.808469 0.247159 0.198458
0.814350 0.242340 0.208787
0.820023 0.237691 0.219308
0.825486 0.233214 0.230012
0.830735 0.228913 0.240895
0.835767 0.224790 0.251948
0.840577 0.220848 0.263164
0.845164 0.217089 0.274537
0.849523 0.213517 0.286057
0.853652 0.210133 0.297718
0.857549 0.206940 0.309513
0.861210 0.203940 0.321432
0.864634 0.201135 0.333469
0.867817 0.198526 0.345616
0.870759 0.196115 0.357864
0.873457 0.193904 0.370206
0.875909 0.191895 0.382633
0.878113 0.190088 0.395138
0.880069 0.188486 0.407711
0.881775 0.187088 0.420345
0.883230 0.185896 0.433032
0.884432 0.184910 0.445762
0.885382 0.184132 0.458528
0.886078 0.183562 0.471322
0.886520 0.183200 0.484134
0.886707 0.183046 0.496957
0.886640 0.183101 0.509782
0.886319 0.183364 0.522601
0.885744 0.183836 0.535404
0.884914 0.184515 0.548184
0.883832 0.185402 0.560933
0.882497 0.186496 0.573641
0.880910 0.187797 0.586301
0.879073 0.189302 0.598905
0.876986 0.191012 0.611443
0.874651 0.192926 0.623908
0.872070 0.195041 0.636291
0.869243 0.197357 0.648585
0.866174 0.199872 0.660780
0.862864 0.202584 0.672871
0.859315 0.205493 0.684847
0.855530 0.208594 0.696702
0.851511 0.211888 0.708427
0.847261 0.215371 0.720015
0.842782 0.219041 0.731459
0.838077 0.222896 0.742750
0.833150 0.226934 0.753881
0.828004 0.231151 0.764846
0.822642 0.235545 0.775636
0.817068 0.240113 0.786245
0.811285 0.244851 0.796665
0.805297 0.249758 0.806890
0.799109 0.254829 0.816914
0.792723 0.260062 0.826728
0.786145 0.265452 0.836328
0.779379 0.270997 0.845707
0.772429 0.276692 0.854858
0.765299 0.282534 0.863776
0.757995 0.288520 0.872454
0.750522 0.294644 0.880887
0.742883 0.300904 0.889070
0.735085 0.307294 0.896997
0.727132 0.313811 0.904662
0.719029 0.320451 0.912062
0.710783 0.327208 0.919190
0.702397 0.334080 0.926042
0.693879 0.341060 0.932614
0.685233 0.348145 0.938902
0.676465 0.355330 0.944900
0.667581 0.362611 0.950606
0.658586 0.369981 0.956015
0.649487 0.377437 0.961125
0.640290 0.384974 0.965931
0.631001 0.392586 0.970430
0.621625 0.400269 0.974620
0.612170 0.408017 0.978498
0.602640 0.415826 0.982061
0.593043 0.423690 0.985307
0.583385 0.431605 0.988233
0.573672 0.439564 0.990838
0.563910 0.447564 0.993120
0.554107 0.455597 0.995078
0.544267 0.463660 0.996710
0.534399 0.471747 0.998016
0.524508 0.479852 0.998993
0.514601 0.487971 0.999642
0.504684 0.496097 0.999963
0.499977 0.499954 0.000000
0.509684 0.491574 0.000164
0.519385 0.483200 0.000658
0.529074 0.474836 0.001480
0.538743 0.466489 0.002630
0.548386 0.458164 0.004107
0.557998 0.449867 0.005910
0.567571 0.441602 0.008039
0.577101 0.433376 0.010491
0.586579 0.425194 0.013265
0.596000 0.417061 0.016359
0.605358 0.408982 0.019772
0.614647 0.400964 0.023501
0.623861 0.393010 0.027543
0.632992 0.385127 0.031896
0.642037 0.377319 0.036557
0.650988 0.369592 0.041523
0.659839 0.361951 0.046790
0.668586 0.354401 0.052356
0.677221 0.346946 0.058216
0.685740 0.339592 0.064367
0.694137 0.332344 0.070804
0.702405 0.325206 0.077524
0.710541 0.318182 0.084522
0.718538 0.311279 0.091793
0.726391 0.304499 0.099333
0.734096 0.297848 0.107137
0.741646 0.291331 0.115198
0.749037 0.284950 0.123513
0.756265 0.278711 0.132076
0.763324 0.272617 0.140881
0.770209 0.266673 0.149922
0.776917 0.260882 0.159194
0.783443 0.255249 0.168689
0.789782 0.249777 0.178403
0.795930 0.244469 0.188328
0.801884 0.239330 0.198458
0.807639 0.234362 0.208787
0.813191 0.229568 0.219308
0.818538 0.224953 0.230012
0.823675 0.220518 0.240895
0.828599 0.216268 0.251948
0.833307 0.212204 0.263164
0.837795 0.208329 0.274537
0.842061 0.204646 0.286057
0.846102 0.201158 0.297718
0.849916 0.197866 0.309513
0.853499 0.194772 0.321432
0.856849 0.191880 0.333469
0.859965 0.189190 0.345616
0.862844 0.186705 0.357864
0.865484 0.184426 0.370206
0.867884 0.182354 0.382633
0.870042 0.180492 0.395138
0.871956 0.178839 0.407711
0.873625 0.177398 0.420345
0.875049 0.176169 0.433032
0.876225 0.175154 0.445762
0.877155 0.174351 0.458528
0.877836 0.173763 0.471322
0.878268 0.173390 0.484134
0.878452 0.173232 0.496957
0.878386 0.173288 0.509782
0.878072 0.173559 0.522601
0.877509 0.174046 0.535404
0.876697 0.174746 0.548184
0.875638 0.175661 0.560933
0.874331 0.176789 0.573641
0.872778 0.178129 0.586301
0.870980 0.179681 0.598905
0.868938 0.181444 0.611443
0.866653 0.183417 0.623908
0.864127 0.185598 0.636291
0.861361 0.187986 0.648585
0.858357 0.190578 0.660780
0.855118 0.193375 0.672871
0.851645 0.196373 0.684847
0.847940 0.199571 0.696702
0.844007 0.202966 0.708427
0.839847 0.206557 0.720015
0.835464 0.210341 0.731459
0.830860 0.214316 0.742750
0.826038 0.218478 0.753881
0.821002 0.222826 0.764846
0.815754 0.227356 0.775636
0.810299 0.232065 0.786245
0.804639 0.236951 0.796665
0.798780 0.242009 0.806890
0.792723 0.247238 0.816914
0.786474 0.252632 0.826728
0.780036 0.258190 0.836328
0.773415 0.263906 0.845707
0.766613 0.269778 0.854858
0.759636 0.275801 0.863776
0.752488 0.281972 0.872454
0.745173 0.288286 0.880887
0.737698 0.294739 0.889070
0.730066 0.301327 0.896997
0.722283 0.308046 0.904662
0.714353 0.314892 0.912062
0.706283 0.321859 0.919190
