ply
format ascii 1.0
element vertex 1773
property float x
property float y
property float z
end_header
0.673187 0.230204 0.275368
0.673836 0.237111 0.278600
0.006904 0.242840 0.279121
0.673900 0.245749 0.279065
0.673086 0.252831 0.275282
0.007354 0.253856 0.278856
0.674021 0.257098 0.280974
0.673059 0.262310 0.275731
0.673400 0.272204 0.276838
0.673410 0.280398 0.275302
0.007547 0.280163 0.279019
0.674787 0.296832 0.277304
0.007513 0.299165 0.277784
0.675452 0.307589 0.278019
0.007697 0.310473 0.277610
0.675727 0.317982 0.277804
0.007406 0.318115 0.279121
0.007516 0.327749 0.277824
0.676185 0.332875 0.279463
0.007246 0.333896 0.278728
0.675873 0.339307 0.278111
0.675650 0.344815 0.277824
0.007195 0.345509 0.279754
0.675044 0.354781 0.277773
0.007990 0.364037 0.278330
0.674172 0.375697 0.277620
0.008177 0.374824 0.279361
0.009028 0.379306 0.276190
0.674488 0.383854 0.279688
0.008969 0.384973 0.277355
0.674536 0.393055 0.278774
0.009421 0.395301 0.276553
0.674605 0.399212 0.277636
0.008538 0.400431 0.280443
0.675038 0.404868 0.278059
0.009495 0.405961 0.276435
0.675795 0.415517 0.277733
0.008023 0.421577 0.281050
0.676585 0.426161 0.277748
0.008276 0.431322 0.278896
0.677305 0.437572 0.278269
0.008091 0.436924 0.278958
0.677413 0.448742 0.276870
0.008479 0.448164 0.276313
0.008096 0.456364 0.277554
0.677580 0.462373 0.276721
0.007586 0.461709 0.279509
0.007430 0.471736 0.279192
0.007464 0.479603 0.278253
0.007334 0.485132 0.278881
0.007381 0.492902 0.279106
0.677568 0.496262 0.278120
0.007763 0.505062 0.279146
0.677055 0.507237 0.277666
0.008182 0.511775 0.279442
0.676573 0.517917 0.277789
0.676171 0.528204 0.277809
0.675843 0.538450 0.277631
0.010202 0.536449 0.277309
0.010555 0.542816 0.278131
0.675565 0.549161 0.277865
0.011497 0.549600 0.277222
0.011712 0.555619 0.278468
0.012688 0.565084 0.277942
0.674099 0.569296 0.278177
0.013942 0.570552 0.274715
0.013024 0.574978 0.279846
0.671980 0.583891 0.278595
0.013444 0.582345 0.280438
0.670404 0.589910 0.277263
0.015179 0.594061 0.278192
0.668648 0.597808 0.280014
0.016227 0.600080 0.277748
0.019846 0.615171 0.277860
0.658852 0.618295 0.278417
0.654231 0.625484 0.278376
0.022701 0.624202 0.279203
0.648428 0.633310 0.278024
0.643555 0.639053 0.277707
0.637366 0.645312 0.277906
0.033361 0.644051 0.278381
0.629296 0.652230 0.277942
0.038054 0.649830 0.278202
0.622130 0.657626 0.278723
0.043284 0.655033 0.278692
0.614998 0.662179 0.278432
0.049591 0.660255 0.279422
0.605094 0.667198 0.277942
0.061189 0.667530 0.276992
0.054300 0.663747 0.280560
0.594709 0.671676 0.278754
0.066716 0.670843 0.277830
0.586620 0.674621 0.277488
0.578948 0.677184 0.279713
0.077886 0.676730 0.278019
0.570384 0.679746 0.278626
0.563129 0.681707 0.277677
0.553730 0.683989 0.278253
0.085614 0.680518 0.279320
0.542704 0.686312 0.277187
0.533382 0.688277 0.280719
0.102104 0.686991 0.278810
0.095205 0.684653 0.279948
0.517111 0.691437 0.277227
0.123108 0.693827 0.278514
0.499719 0.695001 0.277345
0.491729 0.696522 0.277166
0.482158 0.698616 0.279524
0.143713 0.699202 0.278651
0.133465 0.696568 0.276803
0.474858 0.700341 0.279029
0.466712 0.702776 0.278861
0.170041 0.703879 0.279121
0.159144 0.702103 0.277717
0.153747 0.701096 0.276772
0.452138 0.708581 0.276665
0.205241 0.709336 0.278029
0.195174 0.707397 0.278253
0.177287 0.704946 0.280127
0.215625 0.712394 0.277799
0.443910 0.715830 0.279846
0.229590 0.717984 0.278141
0.222895 0.715468 0.280142
0.438742 0.720966 0.279805
0.236686 0.721997 0.278708
0.434045 0.726469 0.279381
0.242667 0.726392 0.279366
0.429646 0.732259 0.278677
0.248168 0.731258 0.279585
0.425389 0.738252 0.277845
0.253214 0.736491 0.279447
0.257857 0.741979 0.279131
0.423138 0.746268 0.280086
0.262195 0.747809 0.278437
0.418922 0.753624 0.278508
0.266294 0.754079 0.277406
0.416305 0.758459 0.277319
0.269578 0.759924 0.276685
0.412389 0.766111 0.275476
0.271936 0.768852 0.277728
0.414276 0.773294 0.279524
0.409960 0.779211 0.276624
0.273107 0.777669 0.279356
0.412503 0.783382 0.280208
0.406920 0.785924 0.275088
0.276441 0.784658 0.277559
0.410252 0.789350 0.278876
0.279935 0.794547 0.275802
0.410030 0.799749 0.279881
0.277750 0.798851 0.278922
0.406048 0.806575 0.276952
0.281944 0.809179 0.276828
0.407576 0.813870 0.279198
0.282138 0.814810 0.277743
0.404679 0.825571 0.277768
0.282539 0.824075 0.278626
0.285543 0.830354 0.276655
0.401865 0.836956 0.277049
0.283185 0.834786 0.279279
0.284067 0.840509 0.279198
0.402802 0.844604 0.278590
0.399887 0.851776 0.276701
0.289581 0.851373 0.275608
0.283955 0.849336 0.280377
0.402414 0.856780 0.278299
0.286528 0.856028 0.278605
0.290106 0.860563 0.275721
0.287256 0.866990 0.278315
0.284731 0.871712 0.280565
0.404596 0.876000 0.278371
0.407397 0.880539 0.280086
0.401858 0.881314 0.276129
0.289610 0.882132 0.276609
0.284820 0.878951 0.280601
0.405089 0.886635 0.277850
0.408734 0.892965 0.280101
0.291182 0.890631 0.275517
0.404991 0.897646 0.276757
0.286491 0.896916 0.279131
0.287257 0.907152 0.277381
0.284496 0.913605 0.278488
0.415304 0.918026 0.278937
0.285811 0.921901 0.276481
0.418897 0.928920 0.278794
0.281914 0.927731 0.278708
0.422076 0.934996 0.280530
0.281838 0.937431 0.277008
0.424302 0.943231 0.280030
0.277499 0.942838 0.278861
0.425501 0.952195 0.277416
0.272795 0.953783 0.278876
0.428928 0.958173 0.279795
0.430688 0.964530 0.280065
0.268334 0.959680 0.279545
0.262728 0.969436 0.279034
0.430631 0.972897 0.279264
0.259114 0.975306 0.280397
0.323967 0.980008 0.279213
0.328145 0.976210 0.280795
0.348498 0.984500 0.277227
0.351631 0.980600 0.280908
0.343468 0.980749 0.279407
0.333229 0.983694 0.276685
0.317796 0.983868 0.278529
0.258928 0.983270 0.280213
0.369308 0.989126 0.277845
0.362529 0.986119 0.278978
0.355076 0.986426 0.276859
0.326428 0.985920 0.275664
0.312596 0.988819 0.277600
0.415024 0.991725 0.279279
0.409605 0.992699 0.278580
0.403527 0.993644 0.277335
0.393730 0.993701 0.279177
0.382320 0.991081 0.279984
0.374888 0.992291 0.275746
0.306439 0.993215 0.276962
0.267588 0.993317 0.278600
0.261007 0.990367 0.282174
0.298541 0.995176 0.278922
0.292467 0.997493 0.278371
0.277873 0.997401 0.278462
0.652005 0.003791 0.284844
0.034594 0.003741 0.281092
0.398020 0.003951 0.283945
0.307449 0.013103 0.278815
0.197951 0.009602 0.279734
0.180829 0.007072 0.280953
0.169139 0.006161 0.284012
0.652017 0.011003 0.283629
0.386994 0.009102 0.285053
0.374370 0.012683 0.283032
0.317249 0.014093 0.281613
0.185847 0.010392 0.284854
0.034628 0.010592 0.280448
0.367124 0.014923 0.285191
0.359346 0.015314 0.284246
0.353881 0.015294 0.283021
0.329657 0.015684 0.283302
0.303010 0.017614 0.281066
0.276529 0.017534 0.282684
0.268145 0.017204 0.282873
0.209242 0.017954 0.281924
0.200332 0.015534 0.283476
0.306237 0.022495 0.285257
0.297288 0.022795 0.283215
0.287329 0.021295 0.282633
0.260663 0.017564 0.285825
0.246476 0.022945 0.282986
0.240727 0.023485 0.281271
0.234829 0.023565 0.280601
0.227434 0.023976 0.281485
0.215933 0.022225 0.282291
0.033656 0.021625 0.283486
0.221769 0.026026 0.283716
0.207358 0.025526 0.285287
0.031679 0.027846 0.284930
0.656155 0.030807 0.284497
0.301075 0.028497 0.286942
0.235978 0.029567 0.284461
0.029442 0.033878 0.284930
0.658692 0.039669 0.283905
0.027693 0.041520 0.282409
0.660398 0.047291 0.282914
0.026365 0.047021 0.282863
0.025249 0.052712 0.283956
0.664029 0.059329 0.284859
0.022477 0.063790 0.284114
0.666216 0.066813 0.283409
0.020064 0.071678 0.281398
0.669019 0.077732 0.282572
0.017362 0.078911 0.282072
0.670606 0.087968 0.282884
0.671413 0.093467 0.283322
0.012718 0.094840 0.284660
0.672269 0.099174 0.283813
0.673330 0.111661 0.280984
0.009950 0.114934 0.282225
0.008966 0.123976 0.282516
0.009183 0.129509 0.281337
0.009623 0.135437 0.279672
0.008444 0.140190 0.282679
0.674326 0.149639 0.283680
0.007494 0.149803 0.285932
0.007907 0.159533 0.283399
0.674650 0.173674 0.283440
0.007491 0.174257 0.282531
0.674694 0.189924 0.282991
0.674915 0.196985 0.284262
0.006018 0.200569 0.282327
0.674828 0.205898 0.283414
0.005295 0.211182 0.284879
0.674989 0.222118 0.284767
0.005680 0.221582 0.282889
0.005980 0.231138 0.282787
0.674772 0.247592 0.284374
0.006388 0.246555 0.283353
0.006683 0.257114 0.283603
0.674398 0.266236 0.282975
0.007024 0.267614 0.282756
0.674812 0.275344 0.283858
0.674867 0.281328 0.282593
0.675298 0.287086 0.283011
0.006807 0.287433 0.283450
0.675925 0.297950 0.282746
0.006601 0.296980 0.283971
0.006814 0.303346 0.282521
0.676557 0.313990 0.282731
0.006697 0.312270 0.283481
0.676757 0.323486 0.282940
0.006616 0.322904 0.282776
0.676937 0.338016 0.283838
0.006006 0.339333 0.285304
0.676441 0.348736 0.282787
0.007018 0.354623 0.282792
0.675723 0.359401 0.282725
0.007235 0.366625 0.283465
0.675267 0.369698 0.283338
0.007518 0.381629 0.283848
0.675205 0.389731 0.283246
0.007748 0.389609 0.283675
0.007637 0.395255 0.284568
0.675644 0.400130 0.283093
0.007625 0.404735 0.284624
0.676382 0.410714 0.283139
0.007846 0.410479 0.283287
0.677137 0.421480 0.282802
0.677779 0.432630 0.282383
0.678158 0.441600 0.282184
0.006988 0.444745 0.284405
0.678792 0.450804 0.284614
0.678927 0.461817 0.284542
0.678408 0.468749 0.280775
0.006757 0.467090 0.283440
0.678306 0.476300 0.280407
0.678822 0.482487 0.284706
0.006465 0.488078 0.284517
0.678290 0.492014 0.282205
0.006514 0.494004 0.284752
0.677939 0.500943 0.281873
0.677625 0.511806 0.283690
0.008617 0.519367 0.279887
0.677061 0.523216 0.283062
0.007796 0.523839 0.284425
0.676741 0.533477 0.283057
0.008904 0.532783 0.281296
0.007840 0.537802 0.286146
0.676472 0.543576 0.282873
0.676161 0.553756 0.282843
0.010519 0.558304 0.283440
0.675472 0.564430 0.282797
0.674414 0.574554 0.282950
0.673758 0.582468 0.285630
0.671782 0.589139 0.283471
0.013009 0.588461 0.284298
0.014831 0.599468 0.283333
0.666107 0.605966 0.283517
0.016321 0.605563 0.282327
0.662697 0.612251 0.281123
0.017965 0.613905 0.284573
0.656825 0.622920 0.283695
0.651418 0.630364 0.282736
0.025180 0.631676 0.282026
0.646431 0.636663 0.282731
0.028817 0.638042 0.281050
0.640897 0.642949 0.284374
0.635753 0.647405 0.282822
0.039907 0.652995 0.282925
0.627683 0.653955 0.283052
0.621848 0.658264 0.285140
0.609566 0.665314 0.282776
0.601782 0.668873 0.282746
0.060686 0.667969 0.283659
0.591120 0.673233 0.283414
0.071068 0.673722 0.283414
0.579475 0.677184 0.285272
0.080530 0.678536 0.282955
0.559164 0.682978 0.285830
0.102277 0.687588 0.284915
0.525658 0.689845 0.282378
0.512480 0.692642 0.283695
0.504319 0.694302 0.283374
0.118082 0.692729 0.284772
0.110491 0.690136 0.282588
0.486306 0.698105 0.284338
0.138247 0.698314 0.285119
0.129652 0.695904 0.281179
0.478865 0.699927 0.285079
0.471213 0.701970 0.282980
0.169054 0.703986 0.285231
0.154302 0.701510 0.282378
0.146959 0.700193 0.284139
0.460275 0.706483 0.283956
0.199545 0.708642 0.284997
0.189951 0.706835 0.283103
0.450547 0.712195 0.283333
0.215018 0.712986 0.284302
0.208168 0.710664 0.283593
0.232342 0.721267 0.284798
0.438410 0.725729 0.285293
0.238261 0.725561 0.285425
0.434079 0.731595 0.284506
0.429977 0.737716 0.283486
0.253389 0.741310 0.284884
0.257603 0.747247 0.284103
0.424052 0.752189 0.284292
0.261682 0.753833 0.282833
0.420663 0.759143 0.282664
0.265654 0.759806 0.280780
0.417037 0.766198 0.280555
0.262929 0.762584 0.285390
0.266843 0.768904 0.283124
0.419268 0.772671 0.285324
0.416024 0.778935 0.283139
0.267830 0.777960 0.285410
0.271631 0.784373 0.282843
0.414384 0.788360 0.283312
0.275474 0.791029 0.279932
0.414439 0.794077 0.284262
0.272864 0.794919 0.283675
0.413935 0.803368 0.284655
0.275335 0.804639 0.282843
0.410469 0.807938 0.281327
0.276454 0.810174 0.282792
0.413565 0.815591 0.285687
0.410503 0.820527 0.282797
0.277631 0.819266 0.283103
0.409129 0.826348 0.281950
0.412706 0.828542 0.286100
0.279930 0.828481 0.281694
0.407678 0.836379 0.281761
0.278019 0.834970 0.284747
0.411920 0.840519 0.286713
0.277602 0.840678 0.286054
0.409806 0.845686 0.284736
0.279276 0.846344 0.284833
0.406897 0.851761 0.282200
0.281908 0.856111 0.283083
0.407683 0.860838 0.282562
0.284676 0.861405 0.280637
0.282361 0.867367 0.283037
0.407290 0.869318 0.281317
0.409699 0.876158 0.282894
0.411835 0.882775 0.284369
0.285489 0.888059 0.280269
0.414511 0.891878 0.286299
0.281338 0.891587 0.283899
0.413608 0.897263 0.284246
0.278678 0.897753 0.285809
0.414097 0.903093 0.283322
0.282438 0.901613 0.281975
0.279505 0.906254 0.283864
0.415896 0.912564 0.281179
0.353298 0.913544 0.286243
0.348196 0.909991 0.286672
0.342224 0.914422 0.286401
0.278310 0.912712 0.283930
0.348722 0.919940 0.285498
0.280409 0.917501 0.281352
0.420265 0.923371 0.283517
0.353692 0.923116 0.285488
0.348559 0.925490 0.285058
0.343652 0.922570 0.285437
0.279357 0.923284 0.281449
0.357931 0.927481 0.285758
0.352532 0.929345 0.284997
0.337155 0.929130 0.285626
0.276798 0.927971 0.282812
0.422562 0.929718 0.284022
0.364066 0.934302 0.287055
0.346036 0.932999 0.284736
0.273957 0.933618 0.283930
0.355320 0.937099 0.285165
0.339572 0.937431 0.285206
0.276341 0.937717 0.281009
0.362266 0.942940 0.286723
0.347999 0.942266 0.285129
0.271781 0.942996 0.283180
0.428111 0.948474 0.283726
0.352947 0.945339 0.285656
0.340882 0.945436 0.285727
0.268024 0.949086 0.284410
0.361302 0.950066 0.287197
0.262915 0.959532 0.284379
0.432456 0.964754 0.285339
0.322137 0.969604 0.284292
0.327640 0.966331 0.285447
0.257785 0.969502 0.284226
0.343191 0.974760 0.283180
0.337912 0.970211 0.284573
0.317905 0.973719 0.283225
0.254608 0.975408 0.285768
0.430715 0.977629 0.282975
0.351793 0.975168 0.284818
0.334912 0.975959 0.281368
0.313259 0.977864 0.282817
0.368624 0.984128 0.283164
0.362103 0.980079 0.284598
0.307250 0.983663 0.282761
0.254538 0.982995 0.285544
0.426260 0.985073 0.285012
0.375688 0.987748 0.281832
0.302031 0.988697 0.282669
0.420150 0.989959 0.281148
0.405763 0.992720 0.283328
0.400153 0.993021 0.282098
0.392817 0.991102 0.285022
0.293690 0.994349 0.283292
0.256512 0.989979 0.287642
0.286882 0.997401 0.283129
0.272932 0.997867 0.282802
0.264766 0.995758 0.285457
0.159356 0.004251 0.289883
0.034455 0.004261 0.286733
0.192213 0.011043 0.283261
0.164767 0.006111 0.288397
0.652550 0.010082 0.289464
0.379645 0.013173 0.287636
0.311476 0.016554 0.282929
0.180090 0.011413 0.288085
0.171723 0.009562 0.290220
0.034088 0.011613 0.286115
0.373598 0.015954 0.289188
0.347429 0.018604 0.286825
0.322959 0.018214 0.286309
0.272821 0.016814 0.286988
0.266334 0.016314 0.288234
0.259838 0.014153 0.291486
0.194040 0.016644 0.286202
0.188826 0.015414 0.287631
0.653056 0.019134 0.285437
0.352448 0.020365 0.290450
0.337887 0.020175 0.287897
0.330530 0.020395 0.288356
0.317290 0.021415 0.288203
0.283061 0.020485 0.287754
0.254969 0.019465 0.286478
0.199241 0.022975 0.286820
0.655120 0.026026 0.287504
0.312105 0.026206 0.289601
0.291831 0.027206 0.286386
0.246893 0.027756 0.287912
0.214014 0.028057 0.285328
0.032214 0.022905 0.288923
0.305557 0.030927 0.289586
0.288595 0.029787 0.290251
0.241079 0.031927 0.287458
0.215461 0.033368 0.287422
0.206880 0.032077 0.287932
0.198300 0.030467 0.289914
0.310426 0.032137 0.292144
0.299473 0.034178 0.290047
0.210637 0.035988 0.289025
0.202393 0.035768 0.290521
0.026657 0.041920 0.287871
0.661164 0.047541 0.288790
0.025048 0.051202 0.289448
0.023329 0.059609 0.288208
0.668988 0.073893 0.289122
0.017975 0.072995 0.288274
0.670357 0.082740 0.287688
0.014728 0.082424 0.289433
0.671253 0.088254 0.288438
0.012809 0.089638 0.289801
0.672209 0.094084 0.289076
0.009994 0.104488 0.287361
0.673420 0.106051 0.285580
0.674307 0.112754 0.287667
0.007731 0.114796 0.289050
0.674691 0.118258 0.288055
0.007077 0.122096 0.288713
0.675096 0.129035 0.288315
0.006514 0.132904 0.289705
0.675019 0.139929 0.287789
0.006948 0.140236 0.288024
0.674930 0.153866 0.287249
0.675145 0.159349 0.288269
0.006911 0.166568 0.287784
0.675415 0.170729 0.288882
0.675371 0.180250 0.287550
0.006393 0.180255 0.288535
0.675639 0.191395 0.289254
0.005838 0.190164 0.288106
0.004909 0.206041 0.288433
0.675444 0.210401 0.287539
0.675586 0.216139 0.288254
0.004956 0.216231 0.288249
0.675912 0.221566 0.290230
0.675611 0.226824 0.288555
0.005278 0.226299 0.287682
0.675016 0.236274 0.285493
0.005582 0.236141 0.287550
0.675364 0.241639 0.287698
0.675793 0.246509 0.290470
0.005701 0.245667 0.288805
0.675483 0.252100 0.288831
0.005879 0.251263 0.288484
0.675141 0.258134 0.287192
0.006179 0.261392 0.288305
0.006421 0.277453 0.287677
0.675936 0.282395 0.288096
0.006301 0.282966 0.288213
0.676600 0.293115 0.288065
0.006067 0.292794 0.288494
0.677313 0.304428 0.288591
0.006049 0.301028 0.287922
0.677351 0.310519 0.287631
0.006189 0.307221 0.286917
0.005911 0.318166 0.287708
0.677677 0.329449 0.288499
0.005581 0.328842 0.288193
0.005379 0.334927 0.289331
0.005704 0.344131 0.288423
0.677258 0.352923 0.288473
0.006461 0.359534 0.287932
0.676396 0.364353 0.288254
0.006627 0.370285 0.288402
0.675898 0.374977 0.288070
0.675640 0.380971 0.286728
0.006824 0.390778 0.289050
0.676251 0.395296 0.288331
0.676895 0.405741 0.288519
0.677370 0.411739 0.288963
0.677604 0.417682 0.287560
0.006937 0.414716 0.287708
0.006592 0.421659 0.289147
0.678184 0.425942 0.287662
0.006656 0.427694 0.288050
0.678728 0.432308 0.289535
0.006732 0.435248 0.286912
0.678967 0.439911 0.288902
0.006327 0.451095 0.287943
0.005885 0.462659 0.289265
0.679411 0.466406 0.288667
0.679276 0.472869 0.287698
0.006189 0.476351 0.286304
0.005915 0.482420 0.288274
0.679121 0.489160 0.289101
0.005678 0.487975 0.290603
0.678783 0.497793 0.288280
0.006137 0.498022 0.288586
0.678241 0.507661 0.287284
0.006583 0.507584 0.287887
0.006890 0.513578 0.287453
0.677904 0.517382 0.288723
0.006896 0.519933 0.288361
0.677483 0.528122 0.288229
0.006700 0.529689 0.289873
0.677219 0.538731 0.288264
0.007723 0.544000 0.288177
0.676980 0.548850 0.288157
0.009145 0.549370 0.285043
0.007782 0.552709 0.290807
0.676665 0.558922 0.288024
0.009809 0.562639 0.287422
0.675912 0.569444 0.287927
0.010187 0.568612 0.288280
0.010808 0.574386 0.288060
0.673655 0.587368 0.290475
0.671062 0.594797 0.288177
0.012843 0.594817 0.288351
0.668596 0.602938 0.290246
0.014805 0.604792 0.288377
0.664127 0.612532 0.289561
0.659346 0.620333 0.288570
0.019491 0.620956 0.287677
0.653764 0.628393 0.288320
0.022390 0.629394 0.289362
0.649246 0.634219 0.287784
0.025833 0.635837 0.288004
0.644871 0.639691 0.289448
0.029870 0.641918 0.286626
0.034836 0.648120 0.285569
0.633696 0.649804 0.287943
0.041433 0.655196 0.287733
0.614644 0.662848 0.287529
0.047540 0.659934 0.288535
0.605313 0.667551 0.288999
0.054649 0.664691 0.287723
0.598915 0.670276 0.288137
0.066525 0.671634 0.288907
0.077059 0.677327 0.288969
0.571622 0.679624 0.287442
0.087151 0.682167 0.288377
0.551373 0.684914 0.287580
0.542583 0.686802 0.287315
0.533603 0.688757 0.289909
0.106109 0.689090 0.288765
0.095014 0.685312 0.287570
0.526770 0.689927 0.287846
0.517308 0.691861 0.287611
0.508105 0.693837 0.289796
0.496469 0.696047 0.285666
0.487488 0.698248 0.290256
0.125533 0.695226 0.287769
0.471908 0.702623 0.289162
0.164228 0.703425 0.288749
0.464377 0.705578 0.288596
0.194946 0.707989 0.288974
0.185004 0.706299 0.287529
0.176724 0.705139 0.287718
0.454791 0.711353 0.289239
0.446187 0.718148 0.287738
0.226203 0.718428 0.287784
0.243854 0.730400 0.285681
0.438250 0.730630 0.290577
0.248871 0.735658 0.285410
0.434263 0.736833 0.289464
0.430428 0.743194 0.288172
0.253300 0.746400 0.290041
0.428365 0.751255 0.290190
0.257194 0.752817 0.288739
0.424963 0.758484 0.288448
0.421368 0.765365 0.285784
0.423581 0.768480 0.290057
0.262305 0.768143 0.288907
0.419866 0.778940 0.288116
0.263814 0.776730 0.290409
0.267127 0.783837 0.288229
0.419214 0.790065 0.290246
0.268014 0.789350 0.288545
0.418533 0.795940 0.290302
0.267720 0.795169 0.290378
0.270334 0.799979 0.287978
0.417628 0.805534 0.290021
0.415950 0.810465 0.288085
0.272117 0.809807 0.287963
0.272948 0.820190 0.288851
0.275531 0.825025 0.286340
0.273123 0.831244 0.290532
0.414315 0.834736 0.289275
0.274006 0.838492 0.290440
0.411581 0.850918 0.287008
0.277561 0.851102 0.287366
0.414018 0.854303 0.290690
0.279808 0.861558 0.285681
0.411660 0.867888 0.286304
0.276612 0.865719 0.289387
0.413653 0.876562 0.287744
0.280692 0.877332 0.284782
0.277836 0.882300 0.287830
0.344499 0.893093 0.290894
0.277079 0.891913 0.288091
0.418884 0.898340 0.291430
0.348540 0.897406 0.289659
0.338448 0.897508 0.290878
0.357387 0.902568 0.289474
0.344972 0.903052 0.288509
0.334220 0.902700 0.290863
0.273074 0.903369 0.290751
0.419077 0.908031 0.288780
0.362882 0.907827 0.290052
0.340961 0.907341 0.288050
0.330449 0.909894 0.290490
0.366888 0.914402 0.290521
0.273198 0.912171 0.288969
0.418947 0.914769 0.285595
0.359670 0.916250 0.287228
0.335947 0.916408 0.287320
0.327642 0.917159 0.289775
0.275111 0.917429 0.286192
0.367841 0.923152 0.289418
0.332123 0.923662 0.287254
0.272090 0.922345 0.288208
0.424390 0.928890 0.289336
0.371755 0.927904 0.290929
0.327984 0.927364 0.288065
0.319978 0.928900 0.290664
0.373154 0.933403 0.291134
0.333187 0.933837 0.286212
0.325876 0.932642 0.288341
0.267409 0.933730 0.289904
0.426387 0.937788 0.287718
0.376346 0.939876 0.292685
0.369264 0.940290 0.288846
0.320064 0.939371 0.289827
0.428471 0.943476 0.288509
0.333103 0.941158 0.286493
0.266601 0.942465 0.287876
0.372661 0.947963 0.290756
0.346213 0.950081 0.286136
0.327010 0.948907 0.287881
0.321197 0.948331 0.288897
0.314249 0.949321 0.290302
0.262710 0.949418 0.289239
0.431309 0.953548 0.288576
0.367376 0.953323 0.289408
0.358235 0.955167 0.287713
0.338980 0.952558 0.286753
0.333190 0.953425 0.287151
0.327029 0.954712 0.287591
0.362832 0.959321 0.289300
0.353101 0.960200 0.287948
0.344268 0.957147 0.287055
0.333962 0.959036 0.287044
0.318143 0.957724 0.288116
0.309208 0.959527 0.289852
0.433152 0.959996 0.290409
0.368634 0.960221 0.291042
0.358423 0.964724 0.289494
0.256885 0.963851 0.288570
0.348755 0.968629 0.286866
0.354299 0.968251 0.288203
0.333905 0.965275 0.286029
0.316453 0.966556 0.286100
0.308504 0.967878 0.288116
0.253393 0.970043 0.289817
0.432847 0.973219 0.288723
0.358915 0.972565 0.288377
0.303148 0.974489 0.288759
0.368563 0.979043 0.288514
0.298688 0.980023 0.289392
0.251013 0.979151 0.290547
0.430891 0.979237 0.289158
0.374837 0.983092 0.287575
0.420543 0.989418 0.288234
0.385610 0.987896 0.286932
0.296274 0.987901 0.286881
0.413768 0.991745 0.286764
0.402313 0.991250 0.290511
0.287282 0.994676 0.288377
0.281816 0.997616 0.287652
0.260393 0.995462 0.291011
0.271614 0.999194 0.288392
0.266052 0.998285 0.290541
0.652539 0.004381 0.290991
0.401605 0.004071 0.290909
0.395752 0.007062 0.291716
0.050936 0.005281 0.297540
0.033497 0.006942 0.291807
0.388894 0.011013 0.293747
0.167015 0.009492 0.295448
0.653864 0.017744 0.293706
0.378830 0.016204 0.294064
0.365557 0.018694 0.291792
0.276843 0.016324 0.292685
0.183166 0.017834 0.291741
0.175928 0.015144 0.294304
0.032050 0.015624 0.293691
0.374494 0.019445 0.297015
0.358338 0.021165 0.293537
0.344283 0.023616 0.292047
0.323271 0.022665 0.290179
0.283173 0.019855 0.293849
0.253565 0.022675 0.291450
0.188467 0.022955 0.291598
0.656179 0.026856 0.293660
0.351641 0.024586 0.295203
0.339580 0.026346 0.293859
0.329140 0.026156 0.293053
0.318519 0.026806 0.292149
0.285540 0.024996 0.291557
0.193124 0.027386 0.291113
0.182231 0.024156 0.295733
0.029608 0.026776 0.293293
0.333820 0.029197 0.295667
0.190198 0.031527 0.294529
0.657968 0.034138 0.290981
0.293363 0.038229 0.292945
0.288255 0.038929 0.295473
0.195879 0.036829 0.293696
0.026989 0.037009 0.292976
0.660097 0.041640 0.292354
0.301150 0.039739 0.293655
0.661635 0.046661 0.294539
0.663474 0.054803 0.290730
0.666118 0.061431 0.293951
0.021647 0.062412 0.292792
0.668740 0.070263 0.294585
0.018955 0.067967 0.293885
0.015110 0.078350 0.293931
0.670897 0.082883 0.293313
0.671960 0.088816 0.294534
0.013081 0.084701 0.295003
0.673731 0.099935 0.294641
0.009833 0.098485 0.293385
0.007936 0.105127 0.294692
0.674420 0.107838 0.292537
0.675582 0.123940 0.292752
0.005612 0.128432 0.293798
0.675976 0.133154 0.294228
0.005435 0.138208 0.294105
0.675645 0.144616 0.292364
0.005728 0.144340 0.293221
0.005970 0.150441 0.292685
0.005905 0.156469 0.293492
0.675955 0.165204 0.293849
0.005987 0.175778 0.292583
0.676156 0.185717 0.293528
0.005392 0.185462 0.293481
0.004805 0.195530 0.292884
0.675988 0.199905 0.291869
0.676085 0.205520 0.292466
0.004349 0.206689 0.294365
0.004332 0.212259 0.294442
0.004687 0.221352 0.292747
0.676110 0.231695 0.292160
0.004969 0.231537 0.292879
0.005211 0.247654 0.294325
0.676289 0.255766 0.294054
0.005478 0.256506 0.293645
0.675934 0.262994 0.291767
0.675990 0.268554 0.291603
0.005845 0.265675 0.292124
0.005940 0.271576 0.291981
0.676571 0.277586 0.293313
0.677158 0.288204 0.293359
0.005621 0.288153 0.293415
0.677547 0.293865 0.293533
0.677768 0.299528 0.292675
0.005448 0.297618 0.293129
0.678766 0.309344 0.296259
0.005365 0.308247 0.293017
0.677815 0.318753 0.289637
0.678716 0.323680 0.295346
0.005053 0.323511 0.293053
0.004864 0.329521 0.294258
0.678134 0.334161 0.291425
0.004963 0.339032 0.293247
0.678055 0.343468 0.291088
0.678137 0.348879 0.292512
0.005374 0.349149 0.293083
0.677668 0.357793 0.292844
0.677379 0.363608 0.294034
0.005935 0.364460 0.293446
0.676962 0.369382 0.293767
0.006152 0.374599 0.292696
0.676520 0.380159 0.292680
0.676319 0.385540 0.290935
0.006211 0.384887 0.293017
0.005936 0.390497 0.295228
0.677319 0.401090 0.293528
0.006262 0.400436 0.292583
0.006092 0.410514 0.293369
0.678607 0.417176 0.296249
0.005908 0.416681 0.294253
0.678800 0.425534 0.293415
0.005959 0.436066 0.292619
0.679538 0.445970 0.292981
0.005700 0.446490 0.293155
0.679747 0.455787 0.293119
0.005354 0.456721 0.293609
0.679876 0.465282 0.294248
0.005309 0.467310 0.293073
0.679759 0.471578 0.293048
0.005631 0.472221 0.290496
0.679673 0.477275 0.292874
0.005416 0.477545 0.292134
0.005177 0.483442 0.294427
0.005381 0.492902 0.294080
0.678944 0.504225 0.293614
0.005768 0.502510 0.292936
0.678680 0.511444 0.294692
0.006011 0.510571 0.292798
0.006017 0.516171 0.293277
0.006016 0.522874 0.293241
0.005502 0.528612 0.295657
0.677914 0.532462 0.293767
0.005882 0.533998 0.293844
0.677614 0.543357 0.293241
0.677398 0.553904 0.293390
0.007675 0.558845 0.293589
0.677082 0.564134 0.293267
0.008128 0.567131 0.295376
0.676216 0.574585 0.293175
0.009957 0.577643 0.292542
0.010352 0.583672 0.293614
0.011226 0.589915 0.293140
0.671916 0.595639 0.294335
0.012736 0.600004 0.293191
0.014898 0.609826 0.293568
0.661856 0.617739 0.293859
0.016614 0.615344 0.292716
0.656713 0.625310 0.292966
0.018322 0.622563 0.295744
0.651925 0.631834 0.292951
0.023217 0.633596 0.295192
0.027028 0.639967 0.294304
0.640249 0.644924 0.293333
0.031357 0.645854 0.293619
0.631136 0.652444 0.292747
0.036379 0.651326 0.293267
0.624564 0.657192 0.293430
0.619762 0.660275 0.293864
0.047535 0.660439 0.294095
0.612031 0.664533 0.292966
0.057312 0.666672 0.293369
0.601665 0.669378 0.295335
0.594829 0.672084 0.293308
0.066557 0.671952 0.294651
0.585686 0.675407 0.292502
0.579378 0.677521 0.295386
0.563336 0.682172 0.293339
0.556445 0.683968 0.292905
0.086274 0.682248 0.294013
0.080530 0.679593 0.295626
0.542884 0.687067 0.292833
0.537521 0.688308 0.294580
0.102310 0.688287 0.294789
0.530163 0.689814 0.295340
0.522846 0.690998 0.291762
0.517345 0.692218 0.293180
0.511807 0.693383 0.294590
0.117469 0.693179 0.294661
0.109799 0.690544 0.292997
0.501848 0.695231 0.292542
0.492163 0.697405 0.293834
0.138711 0.699029 0.294177
0.124140 0.695205 0.293333
0.480503 0.700325 0.293257
0.168676 0.704257 0.294876
0.159263 0.702843 0.293298
0.149388 0.701056 0.291312
0.461149 0.708397 0.293349
0.200046 0.709285 0.293543
0.190017 0.707340 0.293543
0.175405 0.705124 0.293134
0.214265 0.713599 0.294549
0.205610 0.710638 0.292542
0.450237 0.717065 0.293869
0.220860 0.716402 0.293078
0.445407 0.722466 0.293635
0.230939 0.722931 0.293487
0.236453 0.727470 0.293829
0.241694 0.732489 0.293931
0.438235 0.735633 0.295738
0.246419 0.738007 0.293400
0.434533 0.742081 0.294325
0.253177 0.751622 0.294917
0.429059 0.757202 0.294779
0.256708 0.758377 0.293339
0.426436 0.764038 0.293175
0.258448 0.767158 0.295350
0.424310 0.773891 0.293170
0.423937 0.779288 0.294508
0.421657 0.784781 0.292624
0.263134 0.783770 0.294167
0.263572 0.792158 0.296034
0.314104 0.807907 0.299231
0.267705 0.804430 0.292690
0.419655 0.809266 0.293742
0.419070 0.814953 0.293487
0.316712 0.815529 0.298020
0.309996 0.815693 0.298440
0.270400 0.815376 0.291368
0.416812 0.821420 0.290904
0.312707 0.820956 0.297765
0.268517 0.822172 0.295386
0.418680 0.826705 0.295080
0.316783 0.825208 0.297244
0.313212 0.829997 0.297601
0.269217 0.828195 0.295570
0.418082 0.833249 0.295381
0.416192 0.840325 0.293201
0.314630 0.838069 0.298122
0.274212 0.846579 0.291129
0.272663 0.855788 0.294018
0.415638 0.861834 0.293088
0.415900 0.869992 0.292379
0.272584 0.871901 0.294432
0.418719 0.875888 0.296923
0.272706 0.878150 0.294054
0.416749 0.883454 0.291491
0.361523 0.882591 0.297275
0.353635 0.882612 0.294187
0.357232 0.887518 0.293737
0.347872 0.886461 0.292507
0.339274 0.887278 0.293777
0.274959 0.886436 0.290894
0.417459 0.889845 0.291185
0.362273 0.892669 0.294120
0.333340 0.892255 0.294258
0.272721 0.891495 0.293150
0.366251 0.898075 0.294478
0.355484 0.894404 0.291042
0.328607 0.898049 0.294590
0.314957 0.895217 0.298501
0.272054 0.896967 0.293180
0.422319 0.902777 0.297015
0.368740 0.907346 0.293257
0.314680 0.907811 0.296627
0.267810 0.908531 0.295800
0.421412 0.912329 0.291491
0.372877 0.913707 0.294401
0.321592 0.912640 0.293441
0.318130 0.917077 0.293665
0.267717 0.917567 0.293711
0.422540 0.919700 0.290536
0.373847 0.923182 0.292925
0.321370 0.920998 0.291435
0.313957 0.921967 0.294473
0.378466 0.928430 0.295493
0.266209 0.927415 0.292961
0.315673 0.933438 0.291869
0.308920 0.933761 0.294723
0.262544 0.933919 0.295238
0.428537 0.938310 0.293451
0.382142 0.939657 0.297637
0.312844 0.942511 0.291736
0.304365 0.944686 0.294595
0.261580 0.942919 0.293140
0.431412 0.949249 0.292425
0.380003 0.948479 0.295902
0.258190 0.948882 0.295034
0.375253 0.953522 0.293032
0.307242 0.953068 0.291817
0.299976 0.953277 0.295167
0.433417 0.954727 0.294968
0.380461 0.955422 0.297254
0.302375 0.959158 0.292879
0.259057 0.955601 0.290588
0.376515 0.960915 0.295667
0.365552 0.964826 0.291016
0.252641 0.964581 0.294595
0.433968 0.969058 0.293471
0.373833 0.968818 0.295422
0.301271 0.967128 0.291879
0.368803 0.973504 0.291966
0.297242 0.973326 0.292889
0.249489 0.974786 0.294386
0.374528 0.977931 0.292905
0.292824 0.978691 0.294350
0.384356 0.983776 0.293272
0.249543 0.983623 0.294626
0.426330 0.985538 0.291955
0.415775 0.990750 0.294100
0.394499 0.988192 0.293298
0.290723 0.987503 0.291654
0.252509 0.989253 0.293543
0.409946 0.991699 0.291955
0.282438 0.994686 0.293604
0.276110 0.998163 0.292747
0.653075 0.004511 0.296652
0.031883 0.004431 0.296723
0.405589 0.004151 0.297617
0.400598 0.006502 0.297566
0.158895 0.004351 0.297964
0.044517 0.006622 0.305213
0.653762 0.010272 0.299139
0.393558 0.010542 0.299588
0.031351 0.010562 0.297428
0.384046 0.015344 0.298720
0.170896 0.015464 0.299170
0.368730 0.021775 0.298107
0.175226 0.021035 0.299185
0.029443 0.022325 0.298593
0.656743 0.026066 0.299486
0.376268 0.021265 0.302023
0.363225 0.024906 0.300185
0.344859 0.028347 0.296723
0.322528 0.030047 0.294993
0.658716 0.033298 0.299399
0.351218 0.029727 0.300333
0.338396 0.031627 0.298214
0.328879 0.032588 0.297556
0.315452 0.033558 0.294891
0.285819 0.031847 0.295182
0.185055 0.033428 0.298883
0.027346 0.032067 0.298219
0.323344 0.037279 0.299328
0.309926 0.038439 0.295493
0.026391 0.037749 0.298424
0.661077 0.042390 0.298909
0.317904 0.041180 0.299853
0.298097 0.043940 0.295672
0.025620 0.043740 0.298838
0.311285 0.044570 0.299629
0.305860 0.047941 0.300047
0.664367 0.053693 0.299210
0.024262 0.052322 0.299139
0.666869 0.061334 0.299547
0.019041 0.065516 0.300149
0.015773 0.073944 0.299261
0.670411 0.077605 0.297933
0.013385 0.080735 0.300517
0.672289 0.087570 0.300512
0.673662 0.096300 0.299593
0.010185 0.092568 0.299644
0.008007 0.100077 0.299955
0.675052 0.108455 0.298168
0.005996 0.113183 0.297928
0.675922 0.118911 0.297954
0.005374 0.118671 0.298020
0.004900 0.124230 0.298301
0.004503 0.129963 0.299072
0.676471 0.139674 0.299945
0.676047 0.149731 0.295876
0.004638 0.148282 0.298618
0.676263 0.155101 0.297811
0.004993 0.159548 0.298587
0.676446 0.169953 0.298572
0.005423 0.171030 0.297055
0.676574 0.180444 0.298270
0.005050 0.180495 0.298137
0.676759 0.186131 0.299471
0.676682 0.192114 0.298122
0.004519 0.190271 0.298389
0.676622 0.200671 0.297377
0.004144 0.200655 0.298521
0.676821 0.211013 0.298188
0.677149 0.220631 0.300379
0.676986 0.225947 0.298817
0.004484 0.226493 0.297989
0.676814 0.231628 0.297652
0.676545 0.236932 0.295652
0.004723 0.236851 0.298132
0.676824 0.242037 0.297846
0.676965 0.251182 0.298929
0.004947 0.252014 0.298664
0.676941 0.260100 0.298501
0.005166 0.261902 0.298669
0.676852 0.266997 0.297254
0.005382 0.267665 0.297362
0.677137 0.272991 0.298122
0.005329 0.277871 0.298342
0.677694 0.283522 0.298878
0.005015 0.292834 0.298312
0.678797 0.299227 0.299960
0.004796 0.303280 0.298562
0.004677 0.309329 0.298878
0.004795 0.314526 0.296795
0.679201 0.318789 0.298521
0.004536 0.323414 0.298587
0.679353 0.329898 0.299777
0.004517 0.333738 0.298086
0.679145 0.339077 0.298873
0.679095 0.345750 0.299113
0.004594 0.342927 0.298552
0.678855 0.353351 0.299567
0.005047 0.354352 0.298389
0.677736 0.368637 0.299297
0.005446 0.368953 0.298613
0.677256 0.379480 0.298214
0.005766 0.379515 0.296274
0.677074 0.385203 0.296499
0.005451 0.385075 0.299047
0.677551 0.391278 0.298980
0.005221 0.390681 0.301007
0.677732 0.397609 0.298261
0.005639 0.396388 0.297423
0.678156 0.405915 0.298178
0.005519 0.405879 0.297862
0.678683 0.412056 0.299940
0.005259 0.411214 0.299567
0.005360 0.423962 0.297918
0.679469 0.430888 0.298148
0.005410 0.430271 0.297305
0.679672 0.436398 0.297969
0.005219 0.436531 0.298460
0.680050 0.452070 0.297729
0.004880 0.451407 0.298285
0.680140 0.461372 0.298148
0.004394 0.461152 0.300772
0.004602 0.466514 0.298725
0.004865 0.472833 0.296586
0.679921 0.481900 0.297933
0.004521 0.482257 0.299976
0.679679 0.491968 0.298168
0.005010 0.497716 0.298536
0.005322 0.512194 0.298015
0.678509 0.519694 0.296708
0.005179 0.517831 0.298705
0.004954 0.523671 0.299256
0.678346 0.528229 0.297336
0.678151 0.537138 0.297540
0.005180 0.538072 0.297754
0.677971 0.546782 0.298035
0.005746 0.549059 0.298256
0.677916 0.552822 0.298889
0.677742 0.558570 0.298225
0.677395 0.569189 0.298552
0.007781 0.573294 0.299685
0.676260 0.579756 0.298250
0.675229 0.585137 0.297500
0.009867 0.588971 0.298929
0.673796 0.592912 0.300430
0.010947 0.594940 0.298225
0.671072 0.600070 0.298434
0.667852 0.607258 0.296407
0.012743 0.605114 0.298419
0.664489 0.614446 0.298239
0.015117 0.614400 0.298679
0.658997 0.623298 0.298628
0.654478 0.629532 0.298245
0.649354 0.636041 0.298199
0.644983 0.640921 0.298225
0.028712 0.643674 0.299557
0.635238 0.650039 0.298424
0.033103 0.648937 0.299435
0.039172 0.654475 0.300027
0.622504 0.659255 0.300093
0.616909 0.662384 0.299139
0.050071 0.662384 0.299128
0.044365 0.658473 0.300736
0.608898 0.666335 0.298040
0.056590 0.666514 0.299052
0.594810 0.672303 0.300236
0.072407 0.675335 0.298695
0.571798 0.679905 0.297668
0.562702 0.682565 0.299174
0.087095 0.682963 0.299455
0.553056 0.685041 0.297984
0.543238 0.687338 0.298649
0.093338 0.685450 0.298582
0.522368 0.691524 0.297515
0.512756 0.693536 0.300823
0.507754 0.694327 0.298480
0.108661 0.690554 0.298445
0.496754 0.696578 0.297811
0.491541 0.697901 0.299634
0.133182 0.698177 0.300649
0.128192 0.696660 0.297591
0.120910 0.694756 0.300864
0.484125 0.699897 0.300333
0.476585 0.702123 0.298117
0.468968 0.704818 0.295886
0.165242 0.703894 0.299246
0.154061 0.702195 0.298306
0.148457 0.701188 0.297214
0.141791 0.700065 0.299639
0.194611 0.708509 0.300609
0.184953 0.706667 0.297954
0.179500 0.705823 0.297127
0.172115 0.704884 0.300680
0.459036 0.711455 0.299583
0.203560 0.710506 0.298807
0.454074 0.715866 0.300170
0.224088 0.719113 0.298582
0.217849 0.715631 0.300440
0.449190 0.721180 0.300012
0.444781 0.726933 0.299292
0.233376 0.726790 0.299511
0.237797 0.731278 0.300190
0.242556 0.736726 0.299874
0.438161 0.740948 0.300828
0.246831 0.742683 0.298914
0.434772 0.747365 0.299154
0.253039 0.757090 0.300006
0.429227 0.763645 0.298363
0.427113 0.768995 0.296366
0.428749 0.772467 0.301201
0.260029 0.775638 0.296530
0.424700 0.788559 0.299042
0.302891 0.792122 0.304769
0.421822 0.795409 0.295662
0.423251 0.800510 0.299072
0.311716 0.801286 0.301502
0.304603 0.800178 0.302553
0.264935 0.799948 0.295774
0.304416 0.806356 0.301456
0.263316 0.804655 0.299879
0.423448 0.809475 0.300894
0.307638 0.810588 0.299573
0.300602 0.811818 0.303014
0.265158 0.810149 0.297969
0.303529 0.817066 0.300787
0.421331 0.820068 0.298424
0.306395 0.824877 0.299583
0.307932 0.834955 0.299894
0.269961 0.835608 0.295789
0.419412 0.841300 0.299302
0.267845 0.841438 0.300006
0.417330 0.846569 0.296167
0.309818 0.843046 0.300558
0.270397 0.845532 0.296443
0.419028 0.852940 0.300302
0.268492 0.851240 0.299996
0.418665 0.861313 0.299292
0.270118 0.860184 0.297913
0.270647 0.865959 0.297249
0.305924 0.871763 0.302058
0.312132 0.877788 0.299955
0.268222 0.876087 0.300670
0.318007 0.883173 0.298904
0.268529 0.881881 0.299777
0.420525 0.885751 0.299220
0.367000 0.888202 0.298516
0.322368 0.886895 0.298353
0.309844 0.887161 0.299981
0.270365 0.886594 0.296678
0.420537 0.892322 0.297157
0.372038 0.893199 0.300532
0.327997 0.890514 0.296831
0.267235 0.891699 0.300752
0.375136 0.899337 0.300991
0.324061 0.896222 0.297162
0.304980 0.898157 0.300670
0.314039 0.902001 0.297780
0.266933 0.902430 0.298761
0.373834 0.907045 0.297060
0.324544 0.904498 0.294575
0.306786 0.908123 0.299246
0.299937 0.906202 0.302523
0.424842 0.911430 0.299787
0.378020 0.913314 0.298929
0.309941 0.912676 0.297530
0.303207 0.912181 0.300604
0.263483 0.912926 0.300257
0.425154 0.917690 0.297530
0.307917 0.917827 0.297831
0.426294 0.923560 0.297500
0.382848 0.924198 0.301175
0.304011 0.921738 0.299282
0.262282 0.922672 0.298950
0.428734 0.929022 0.301012
0.306717 0.926154 0.297198
0.427029 0.930708 0.295361
0.383471 0.933367 0.299843
0.302302 0.932581 0.298173
0.258666 0.933403 0.300747
0.297588 0.937998 0.299603
0.431431 0.942960 0.298122
0.385992 0.942889 0.302257
0.294783 0.943644 0.300359
0.257253 0.943705 0.298996
0.433399 0.949249 0.299563
0.298223 0.947897 0.297188
0.385326 0.950745 0.301936
0.293820 0.953819 0.299384
0.255158 0.953032 0.297918
0.252737 0.958668 0.298853
0.434913 0.961558 0.300052
0.381879 0.961145 0.300292
0.294936 0.961681 0.297249
0.434659 0.967567 0.299573
0.378509 0.967393 0.298991
0.291993 0.968573 0.298358
0.248053 0.970170 0.299644
0.433028 0.975653 0.296412
0.288200 0.974923 0.300313
0.380100 0.977869 0.297617
0.246725 0.979023 0.299215
0.429482 0.982602 0.298511
0.389495 0.983760 0.298214
0.287008 0.983322 0.297948
0.424258 0.987181 0.298496
0.400992 0.988687 0.298700
0.282743 0.989795 0.298924
0.247851 0.986941 0.300573
0.277744 0.995120 0.299179
0.252978 0.992807 0.298736
0.271756 0.998198 0.299123
0.262120 0.997968 0.298358
0.653957 0.003921 0.302993
0.029705 0.004251 0.302319
0.409111 0.004151 0.304121
0.161574 0.008792 0.302129
0.154213 0.004071 0.303902
0.398007 0.009622 0.303968
0.028830 0.011253 0.305800
0.654971 0.015244 0.302830
0.387993 0.015454 0.304683
0.165995 0.014933 0.304162
0.028847 0.017214 0.304489
0.656405 0.021905 0.304131
0.172345 0.024136 0.303687
0.368208 0.026086 0.304167
0.359602 0.028487 0.302590
0.178006 0.028757 0.301262
0.027663 0.026876 0.303223
0.658311 0.028817 0.305336
0.344613 0.032998 0.301037
0.026759 0.032588 0.304208
0.348292 0.035488 0.304759
0.338968 0.037159 0.302993
0.329895 0.038699 0.301875
0.661590 0.041340 0.304948
0.324015 0.042870 0.302881
0.318002 0.047151 0.303249
0.663799 0.049221 0.304841
0.312446 0.051852 0.303800
0.666093 0.057263 0.303570
0.022065 0.059088 0.299782
0.668958 0.067645 0.303243
0.015331 0.073138 0.304698
0.670840 0.077635 0.303478
0.010711 0.088484 0.304004
0.008275 0.095524 0.305525
0.674923 0.103575 0.302871
0.005835 0.108384 0.303044
0.676058 0.113771 0.303412
0.004995 0.113822 0.303366
0.004284 0.119641 0.303795
0.676598 0.124220 0.303243
0.676772 0.129438 0.305015
0.003317 0.128539 0.306102
0.003948 0.138836 0.301313
0.676685 0.144774 0.303692
0.003741 0.144340 0.302676
0.676574 0.150502 0.302165
0.003992 0.152805 0.302502
0.676703 0.160074 0.303499
0.004254 0.162688 0.303386
0.004396 0.168941 0.303825
0.676855 0.174956 0.303315
0.004765 0.175165 0.301476
0.677221 0.184824 0.305724
0.004264 0.185115 0.303621
0.677128 0.190475 0.303442
0.003974 0.195760 0.303437
0.677217 0.205765 0.303320
0.003761 0.204729 0.304734
0.677370 0.215736 0.303672
0.003901 0.214679 0.302155
0.003974 0.219993 0.303600
0.677456 0.230546 0.304183
0.004338 0.231332 0.303493
0.677238 0.237678 0.301890
0.004510 0.241879 0.303299
0.677400 0.247169 0.303116
0.677577 0.256705 0.304039
0.004697 0.256981 0.303723
0.677698 0.262943 0.304177
0.677708 0.269422 0.302993
0.004922 0.267175 0.303299
0.005080 0.272562 0.301619
0.677991 0.279005 0.302728
0.004830 0.282420 0.303871
0.678787 0.288944 0.305050
0.004420 0.297786 0.303733
0.004210 0.303617 0.304790
0.679540 0.307170 0.302932
0.679897 0.316334 0.303585
0.004250 0.318314 0.302769
0.680029 0.322587 0.304188
0.004081 0.328366 0.305576
0.679695 0.334559 0.302692
0.004269 0.348338 0.304101
0.678864 0.359407 0.303698
0.004707 0.359151 0.303468
0.004931 0.372685 0.303350
0.004968 0.379066 0.302978
0.677847 0.384381 0.303039
0.004711 0.386055 0.305357
0.678623 0.396469 0.306745
0.005180 0.400666 0.301089
0.678763 0.405230 0.304183
0.004654 0.409263 0.305025
0.679470 0.420469 0.303427
0.004772 0.419867 0.302667
0.004674 0.426024 0.303126
0.004525 0.432064 0.304254
0.680305 0.441758 0.303146
0.004659 0.442595 0.302176
0.680470 0.447741 0.303866
0.004129 0.456654 0.304126
0.680537 0.467126 0.305382
0.004085 0.471215 0.303249
0.680314 0.476749 0.303034
0.680099 0.486954 0.303198
0.004065 0.486448 0.304417
0.004292 0.492310 0.303570
0.679848 0.497104 0.303381
0.004618 0.502510 0.302810
0.679495 0.507783 0.303100
0.679244 0.513650 0.302636
0.004306 0.519163 0.304280
0.679086 0.523273 0.304274
0.678943 0.529633 0.304499
0.004009 0.529618 0.303856
0.678687 0.538849 0.304300
0.004445 0.541304 0.302339
0.678670 0.547737 0.306520
0.004569 0.547650 0.303876
0.005125 0.553648 0.303478
0.678049 0.562348 0.302707
0.006179 0.564543 0.303284
0.677955 0.568315 0.304075
0.677536 0.574299 0.303810
0.007717 0.579853 0.303647
0.675998 0.584928 0.303075
0.008285 0.587378 0.305954
0.009741 0.594229 0.304208
0.671926 0.600483 0.304433
0.010952 0.600014 0.303361
0.669266 0.607145 0.304999
0.012824 0.609565 0.303647
0.661762 0.620220 0.303223
0.015836 0.618974 0.303146
0.656925 0.627306 0.303580
0.017653 0.624293 0.304152
0.020954 0.631574 0.303927
0.024499 0.637634 0.301482
0.648382 0.638374 0.305336
0.643128 0.643878 0.305423
0.637577 0.649074 0.305683
0.035132 0.651393 0.304958
0.629704 0.655018 0.303795
0.616478 0.663206 0.305285
0.051004 0.663263 0.304688
0.605654 0.668061 0.303259
0.060094 0.668755 0.303238
0.066742 0.672441 0.304137
0.587458 0.675045 0.302799
0.579689 0.677664 0.305509
0.074977 0.676944 0.303810
0.563497 0.682534 0.305152
0.555113 0.684771 0.304402
0.547993 0.686439 0.302794
0.539231 0.688588 0.305841
0.101966 0.688665 0.302461
0.090382 0.684587 0.303738
0.530981 0.690187 0.302937
0.517681 0.692815 0.304131
0.111630 0.691902 0.303442
0.492442 0.698034 0.305663
0.477156 0.702588 0.304576
0.161032 0.703384 0.303529
0.154612 0.702455 0.304458
0.148992 0.701525 0.302804
0.469553 0.705727 0.303718
0.463223 0.709290 0.302963
0.189674 0.707667 0.303983
0.210161 0.713032 0.304785
0.226099 0.721553 0.303948
0.444275 0.731508 0.304836
0.243275 0.741142 0.305586
0.438054 0.746079 0.305581
0.247258 0.747589 0.304407
0.434996 0.752847 0.304254
0.432290 0.759214 0.302697
0.254495 0.764518 0.302528
0.256599 0.773722 0.303335
0.428894 0.778726 0.304116
0.304018 0.784515 0.309767
0.259362 0.781605 0.300685
0.428088 0.787200 0.305703
0.259494 0.788666 0.303305
0.426059 0.794113 0.303376
0.299374 0.799979 0.305637
0.261282 0.799973 0.302799
0.425236 0.804568 0.303841
0.261650 0.810179 0.304458
0.424523 0.815897 0.304234
0.264169 0.817295 0.301175
0.299166 0.820542 0.303723
0.422299 0.824938 0.301170
0.301216 0.826950 0.302405
0.264893 0.823376 0.301456
0.423831 0.829507 0.305407
0.265453 0.829665 0.302017
0.421711 0.834741 0.302293
0.301649 0.834387 0.302876
0.265792 0.836333 0.302738
0.298866 0.842423 0.305499
0.302694 0.846069 0.303846
0.266417 0.845956 0.303121
0.307150 0.850000 0.302631
0.299365 0.851582 0.305897
0.304622 0.856754 0.303876
0.266501 0.854768 0.303876
0.307560 0.861686 0.302784
0.299358 0.861839 0.306005
0.266840 0.860716 0.303590
0.420574 0.866352 0.303090
0.303713 0.866546 0.303692
0.266869 0.867556 0.303504
0.421025 0.872967 0.303136
0.302932 0.876705 0.302968
0.304886 0.882755 0.301635
0.298245 0.882515 0.305203
0.423506 0.892577 0.306193
0.375854 0.894680 0.304330
0.309516 0.893123 0.299659
0.302991 0.891158 0.301910
0.298052 0.897447 0.304213
0.424105 0.902389 0.302794
0.379578 0.903778 0.304499
0.262741 0.903620 0.305081
0.425556 0.907713 0.304346
0.382077 0.912753 0.304381
0.297389 0.911981 0.304030
0.428191 0.919456 0.304999
0.297216 0.917562 0.303779
0.260592 0.917179 0.303335
0.297093 0.923514 0.302998
0.258192 0.924137 0.305071
0.387199 0.934256 0.305780
0.296358 0.931203 0.301900
0.431569 0.937645 0.303376
0.292349 0.938054 0.303381
0.255875 0.938090 0.303963
0.433396 0.943956 0.304616
0.288287 0.944747 0.306046
0.253052 0.949510 0.304718
0.288240 0.954140 0.304576
0.435239 0.957188 0.303988
0.290291 0.960440 0.301487
0.386445 0.959716 0.305933
0.249447 0.962502 0.302723
0.435349 0.966934 0.305601
0.383940 0.968456 0.304877
0.287093 0.968430 0.303391
0.380491 0.973494 0.300946
0.283966 0.974137 0.305668
0.433042 0.977155 0.305872
0.384997 0.977752 0.302575
0.243806 0.979023 0.305453
0.427267 0.985201 0.303887
0.394408 0.984128 0.303575
0.282348 0.983796 0.303692
0.419058 0.989137 0.303943
0.410818 0.989923 0.302119
0.404921 0.988595 0.303784
0.244969 0.986579 0.306755
0.278360 0.990576 0.304662
0.248957 0.991515 0.305285
0.273254 0.995778 0.305035
0.266338 0.998990 0.305035
0.258262 0.997263 0.302661
0.654852 0.003561 0.310425
0.042980 0.003651 0.310232
0.027903 0.003851 0.309277
0.413298 0.004201 0.309849
0.406513 0.006912 0.309415
0.152326 0.007182 0.308501
0.049473 0.009412 0.304938
0.655136 0.010132 0.308542
0.394874 0.012763 0.308083
0.159176 0.012723 0.308537
0.656156 0.016994 0.309793
0.381714 0.019765 0.305504
0.048513 0.012963 0.311580
0.387095 0.019264 0.310982
0.657986 0.024506 0.311361
0.374187 0.026126 0.308256
0.027203 0.026396 0.308833
0.367946 0.030867 0.309446
0.359779 0.033018 0.307322
0.660768 0.036549 0.308716
0.353590 0.037119 0.308497
0.344894 0.039399 0.306857
0.339576 0.042670 0.307527
0.330698 0.044490 0.306035
0.025788 0.039789 0.308267
0.346792 0.044120 0.311345
0.324769 0.049081 0.306857
0.024901 0.045561 0.308747
0.331460 0.050662 0.309931
0.319197 0.053963 0.307358
0.023886 0.050852 0.306924
0.666624 0.056583 0.310390
0.321344 0.058264 0.310451
0.021033 0.058004 0.308604
0.668946 0.065306 0.309553
0.017926 0.064357 0.309691
0.670303 0.072745 0.307986
0.013149 0.079003 0.308527
0.672328 0.083384 0.309726
0.010225 0.087662 0.309767
0.673356 0.090965 0.306541
0.674579 0.098745 0.306525
0.006076 0.103432 0.307996
0.676001 0.108516 0.308716
0.004104 0.114342 0.309201
0.676719 0.118911 0.308180
0.003151 0.121050 0.310819
0.676927 0.133981 0.308736
0.002826 0.133323 0.309512
0.002726 0.139965 0.309874
0.002775 0.145984 0.309594
0.676882 0.149726 0.308267
0.676829 0.155137 0.306622
0.003006 0.154637 0.309537
0.676959 0.164964 0.308578
0.003116 0.162836 0.311191
0.004018 0.174420 0.307420
0.677286 0.179704 0.309150
0.003951 0.180250 0.308190
0.677476 0.189541 0.309578
0.003760 0.191313 0.309420
0.677363 0.195331 0.306622
0.677486 0.200727 0.308144
